ply
format ascii 1.0
element vertex 450
property float x
property float y
property float z
property uchar red
property uchar green
property uchar blue
property uchar alpha
property float scale_0
property float scale_1
property float scale_2
property float rot_0
property float rot_1
property float rot_2
property float rot_3
end_header
2.819021 -0.159532 -0.710233 178 158 134 204 0.000000 0.000000 0.000000 1.000000 0.000000 0.000000 0.000000
-0.043545 -3.917219 -0.152311 0 0 0 204 0.000000 0.000000 0.000000 1.000000 0.000000 0.000000 0.000000
-0.654141 -2.549915 -2.634057 185 170 150 204 0.000000 0.000000 0.000000 1.000000 0.000000 0.000000 0.000000
1.667707 0.508466 -0.393246 69 59 50 204 0.000000 0.000000 0.000000 1.000000 0.000000 0.000000 0.000000
3.882101 -3.023639 -1.184515 0 0 0 204 0.000000 0.000000 0.000000 1.000000 0.000000 0.000000 0.000000
2.134284 0.329879 -0.549314 0 0 0 204 0.000000 0.000000 0.000000 1.000000 0.000000 0.000000 0.000000
1.904381 -0.191241 -0.629238 207 176 146 204 0.000000 0.000000 0.000000 1.000000 0.000000 0.000000 0.000000
1.164450 -0.418509 -0.555901 88 84 72 204 0.000000 0.000000 0.000000 1.000000 0.000000 0.000000 0.000000
1.717459 0.509612 -0.366222 49 46 37 204 0.000000 0.000000 0.000000 1.000000 0.000000 0.000000 0.000000
-1.178215 -2.618325 -2.343285 129 144 165 204 0.000000 0.000000 0.000000 1.000000 0.000000 0.000000 0.000000
-0.606424 -2.746998 -1.806764 230 219 225 204 0.000000 0.000000 0.000000 1.000000 0.000000 0.000000 0.000000
2.077606 0.223328 -0.555953 0 0 0 204 0.000000 0.000000 0.000000 1.000000 0.000000 0.000000 0.000000
2.297290 0.417037 -0.545913 188 165 134 204 0.000000 0.000000 0.000000 1.000000 0.000000 0.000000 0.000000
0.797788 0.509239 0.490393 159 138 117 204 0.000000 0.000000 0.000000 1.000000 0.000000 0.000000 0.000000
1.810318 -0.226913 -0.655295 252 226 194 204 0.000000 0.000000 0.000000 1.000000 0.000000 0.000000 0.000000
1.793837 -2.868213 -1.957552 177 185 176 204 0.000000 0.000000 0.000000 1.000000 0.000000 0.000000 0.000000
1.514362 -0.667104 -0.667855 160 129 98 204 0.000000 0.000000 0.000000 1.000000 0.000000 0.000000 0.000000
-5.724075 2.425223 -2.847813 182 181 177 204 0.000000 0.000000 0.000000 1.000000 0.000000 0.000000 0.000000
8.473533 0.657228 -5.694911 70 62 49 204 0.000000 0.000000 0.000000 1.000000 0.000000 0.000000 0.000000
1.147517 -1.184381 -0.524846 0 0 0 204 0.000000 0.000000 0.000000 1.000000 0.000000 0.000000 0.000000
0.525046 -0.691633 -0.048856 164 147 119 204 0.000000 0.000000 0.000000 1.000000 0.000000 0.000000 0.000000
1.684051 -3.085970 -1.149824 203 155 71 204 0.000000 0.000000 0.000000 1.000000 0.000000 0.000000 0.000000
1.713748 -0.120250 -0.594533 118 98 89 204 0.000000 0.000000 0.000000 1.000000 0.000000 0.000000 0.000000
2.047251 0.150187 -0.567314 77 66 55 204 0.000000 0.000000 0.000000 1.000000 0.000000 0.000000 0.000000
8.928098 1.937634 -6.278221 0 0 0 204 0.000000 0.000000 0.000000 1.000000 0.000000 0.000000 0.000000
0.230399 -2.714375 -2.017090 132 107 44 204 0.000000 0.000000 0.000000 1.000000 0.000000 0.000000 0.000000
-0.060146 -2.636180 -2.361800 241 237 236 204 0.000000 0.000000 0.000000 1.000000 0.000000 0.000000 0.000000
8.058228 -3.127808 7.653410 22 18 15 204 0.000000 0.000000 0.000000 1.000000 0.000000 0.000000 0.000000
1.324328 -2.871764 -1.600309 120 137 145 204 0.000000 0.000000 0.000000 1.000000 0.000000 0.000000 0.000000
0.704167 -1.045586 -0.173932 220 205 176 204 0.000000 0.000000 0.000000 1.000000 0.000000 0.000000 0.000000
1.656556 0.365748 -0.480060 100 93 78 204 0.000000 0.000000 0.000000 1.000000 0.000000 0.000000 0.000000
0.773140 -1.128467 -0.250039 238 217 196 204 0.000000 0.000000 0.000000 1.000000 0.000000 0.000000 0.000000
8.556447 2.043851 -5.588535 0 0 0 204 0.000000 0.000000 0.000000 1.000000 0.000000 0.000000 0.000000
1.613637 0.090031 -0.579136 90 78 66 204 0.000000 0.000000 0.000000 1.000000 0.000000 0.000000 0.000000
5.480875 -2.867834 -1.257420 101 96 90 204 0.000000 0.000000 0.000000 1.000000 0.000000 0.000000 0.000000
1.715727 0.316507 -0.504906 74 65 56 204 0.000000 0.000000 0.000000 1.000000 0.000000 0.000000 0.000000
8.474092 0.567748 -8.438555 0 0 0 204 0.000000 0.000000 0.000000 1.000000 0.000000 0.000000 0.000000
1.704035 0.235740 -0.522565 87 83 80 204 0.000000 0.000000 0.000000 1.000000 0.000000 0.000000 0.000000
2.071675 0.028227 -0.623785 84 66 54 204 0.000000 0.000000 0.000000 1.000000 0.000000 0.000000 0.000000
1.713944 0.293450 -0.505492 0 0 0 204 0.000000 0.000000 0.000000 1.000000 0.000000 0.000000 0.000000
1.956648 0.300462 -0.526580 145 111 87 204 0.000000 0.000000 0.000000 1.000000 0.000000 0.000000 0.000000
1.860561 0.444094 -0.417573 54 42 35 204 0.000000 0.000000 0.000000 1.000000 0.000000 0.000000 0.000000
1.999164 0.442729 -0.488962 161 130 109 204 0.000000 0.000000 0.000000 1.000000 0.000000 0.000000 0.000000
0.931490 -0.435479 0.350833 172 157 138 204 0.000000 0.000000 0.000000 1.000000 0.000000 0.000000 0.000000
1.613134 0.314317 -0.500718 168 147 123 204 0.000000 0.000000 0.000000 1.000000 0.000000 0.000000 0.000000
-0.148828 -2.613622 -2.297240 239 232 226 204 0.000000 0.000000 0.000000 1.000000 0.000000 0.000000 0.000000
2.553516 0.431677 -0.548025 0 0 0 204 0.000000 0.000000 0.000000 1.000000 0.000000 0.000000 0.000000
1.635857 -0.259149 -0.655062 0 0 0 204 0.000000 0.000000 0.000000 1.000000 0.000000 0.000000 0.000000
1.661085 0.202938 -0.520614 190 159 123 204 0.000000 0.000000 0.000000 1.000000 0.000000 0.000000 0.000000
8.568850 1.040994 -5.112412 41 29 20 204 0.000000 0.000000 0.000000 1.000000 0.000000 0.000000 0.000000
1.987222 0.557768 -0.285576 153 136 118 204 0.000000 0.000000 0.000000 1.000000 0.000000 0.000000 0.000000
5.790786 -2.932701 -0.846095 0 0 0 204 0.000000 0.000000 0.000000 1.000000 0.000000 0.000000 0.000000
0.710922 0.691880 0.324093 225 208 180 204 0.000000 0.000000 0.000000 1.000000 0.000000 0.000000 0.000000
3.021476 -0.134834 -0.702722 162 138 112 204 0.000000 0.000000 0.000000 1.000000 0.000000 0.000000 0.000000
1.921648 -1.038026 -0.418126 154 122 97 204 0.000000 0.000000 0.000000 1.000000 0.000000 0.000000 0.000000
1.830440 0.427547 -0.475420 0 0 0 204 0.000000 0.000000 0.000000 1.000000 0.000000 0.000000 0.000000
8.251934 2.693541 0.793368 50 45 41 204 0.000000 0.000000 0.000000 1.000000 0.000000 0.000000 0.000000
0.459924 0.130578 0.241592 186 166 141 204 0.000000 0.000000 0.000000 1.000000 0.000000 0.000000 0.000000
8.349653 -2.204108 7.152163 0 0 0 204 0.000000 0.000000 0.000000 1.000000 0.000000 0.000000 0.000000
3.419600 0.336308 -0.661888 208 187 156 204 0.000000 0.000000 0.000000 1.000000 0.000000 0.000000 0.000000
3.558410 0.279962 -0.695200 138 118 91 204 0.000000 0.000000 0.000000 1.000000 0.000000 0.000000 0.000000
1.861389 0.096431 -0.561492 226 196 152 204 0.000000 0.000000 0.000000 1.000000 0.000000 0.000000 0.000000
0.440211 -0.296629 0.169014 175 161 134 204 0.000000 0.000000 0.000000 1.000000 0.000000 0.000000 0.000000
1.448101 -0.711511 -0.653957 0 0 0 204 0.000000 0.000000 0.000000 1.000000 0.000000 0.000000 0.000000
1.552461 -0.715057 -0.646783 172 156 133 204 0.000000 0.000000 0.000000 1.000000 0.000000 0.000000 0.000000
0.819556 -1.099263 -0.122495 128 111 85 204 0.000000 0.000000 0.000000 1.000000 0.000000 0.000000 0.000000
0.971419 0.538705 0.505880 144 131 115 204 0.000000 0.000000 0.000000 1.000000 0.000000 0.000000 0.000000
0.783188 -1.118363 -0.333563 250 234 209 204 0.000000 0.000000 0.000000 1.000000 0.000000 0.000000 0.000000
1.992162 -0.171112 -0.661033 0 0 0 204 0.000000 0.000000 0.000000 1.000000 0.000000 0.000000 0.000000
1.908870 -0.034491 -0.615081 205 179 149 204 0.000000 0.000000 0.000000 1.000000 0.000000 0.000000 0.000000
0.841414 -1.043385 0.023464 170 149 132 204 0.000000 0.000000 0.000000 1.000000 0.000000 0.000000 0.000000
2.075379 0.288617 -0.542402 199 171 142 204 0.000000 0.000000 0.000000 1.000000 0.000000 0.000000 0.000000
-1.755221 -2.540621 -2.547666 0 0 0 204 0.000000 0.000000 0.000000 1.000000 0.000000 0.000000 0.000000
1.150542 0.672390 -0.121410 0 0 0 204 0.000000 0.000000 0.000000 1.000000 0.000000 0.000000 0.000000
2.047419 -0.285535 -0.683292 65 61 50 204 0.000000 0.000000 0.000000 1.000000 0.000000 0.000000 0.000000
1.398628 -0.064333 -0.529027 71 67 60 204 0.000000 0.000000 0.000000 1.000000 0.000000 0.000000 0.000000
1.423367 -0.218012 -0.590175 0 0 0 204 0.000000 0.000000 0.000000 1.000000 0.000000 0.000000 0.000000
2.545685 0.407504 -0.569625 166 136 108 204 0.000000 0.000000 0.000000 1.000000 0.000000 0.000000 0.000000
0.604568 0.573742 0.215747 191 177 148 204 0.000000 0.000000 0.000000 1.000000 0.000000 0.000000 0.000000
1.629704 0.475375 -0.409849 81 75 63 204 0.000000 0.000000 0.000000 1.000000 0.000000 0.000000 0.000000
8.763391 2.659938 -5.276282 34 25 16 204 0.000000 0.000000 0.000000 1.000000 0.000000 0.000000 0.000000
1.512388 0.134991 -0.488709 127 114 105 204 0.000000 0.000000 0.000000 1.000000 0.000000 0.000000 0.000000
1.873209 0.464657 -0.392968 187 160 133 204 0.000000 0.000000 0.000000 1.000000 0.000000 0.000000 0.000000
0.041935 -2.674649 -2.129440 125 121 112 204 0.000000 0.000000 0.000000 1.000000 0.000000 0.000000 0.000000
1.853395 0.084966 -0.574130 77 66 64 204 0.000000 0.000000 0.000000 1.000000 0.000000 0.000000 0.000000
1.698545 0.948714 0.092965 95 85 67 204 0.000000 0.000000 0.000000 1.000000 0.000000 0.000000 0.000000
-0.487066 -2.781201 -1.790436 238 228 229 204 0.000000 0.000000 0.000000 1.000000 0.000000 0.000000 0.000000
0.583748 -0.653133 0.083711 191 176 147 204 0.000000 0.000000 0.000000 1.000000 0.000000 0.000000 0.000000
1.924298 0.562468 -0.313050 143 118 94 204 0.000000 0.000000 0.000000 1.000000 0.000000 0.000000 0.000000
0.802284 -0.861494 0.120738 154 136 114 204 0.000000 0.000000 0.000000 1.000000 0.000000 0.000000 0.000000
0.633491 -0.821362 -0.011004 228 211 183 204 0.000000 0.000000 0.000000 1.000000 0.000000 0.000000 0.000000
1.445344 -0.153319 -0.575888 140 104 72 204 0.000000 0.000000 0.000000 1.000000 0.000000 0.000000 0.000000
0.634982 -0.775181 0.027984 231 210 183 204 0.000000 0.000000 0.000000 1.000000 0.000000 0.000000 0.000000
1.233224 -0.313628 -0.551424 0 0 0 204 0.000000 0.000000 0.000000 1.000000 0.000000 0.000000 0.000000
1.826591 0.576014 -0.299548 180 156 133 204 0.000000 0.000000 0.000000 1.000000 0.000000 0.000000 0.000000
1.513896 1.093635 0.135619 178 160 140 204 0.000000 0.000000 0.000000 1.000000 0.000000 0.000000 0.000000
-5.751153 -1.177149 -4.576176 161 160 156 204 0.000000 0.000000 0.000000 1.000000 0.000000 0.000000 0.000000
2.361436 0.001006 -0.681782 198 173 143 204 0.000000 0.000000 0.000000 1.000000 0.000000 0.000000 0.000000
1.727745 -0.168830 -0.611588 80 76 65 204 0.000000 0.000000 0.000000 1.000000 0.000000 0.000000 0.000000
1.215642 1.084412 0.553034 162 144 122 204 0.000000 0.000000 0.000000 1.000000 0.000000 0.000000 0.000000
0.647529 -0.843593 -0.040472 242 222 194 204 0.000000 0.000000 0.000000 1.000000 0.000000 0.000000 0.000000
8.948621 3.013403 -6.145049 72 62 52 204 0.000000 0.000000 0.000000 1.000000 0.000000 0.000000 0.000000
1.817734 -0.535346 -0.668582 72 67 55 204 0.000000 0.000000 0.000000 1.000000 0.000000 0.000000 0.000000
1.576705 1.212931 0.169616 255 242 203 204 0.000000 0.000000 0.000000 1.000000 0.000000 0.000000 0.000000
1.177869 -0.165421 -0.489994 0 0 0 204 0.000000 0.000000 0.000000 1.000000 0.000000 0.000000 0.000000
1.696903 0.014114 -0.577080 63 52 41 204 0.000000 0.000000 0.000000 1.000000 0.000000 0.000000 0.000000
1.763772 0.893050 0.085161 186 162 130 204 0.000000 0.000000 0.000000 1.000000 0.000000 0.000000 0.000000
1.575872 0.283657 -0.481567 191 159 130 204 0.000000 0.000000 0.000000 1.000000 0.000000 0.000000 0.000000
2.755294 0.205352 -0.609068 189 172 142 204 0.000000 0.000000 0.000000 1.000000 0.000000 0.000000 0.000000
-0.487740 -3.836963 -0.465495 69 58 64 204 0.000000 0.000000 0.000000 1.000000 0.000000 0.000000 0.000000
-5.718079 -1.163341 -4.355116 160 161 156 204 0.000000 0.000000 0.000000 1.000000 0.000000 0.000000 0.000000
1.889408 0.460343 -0.419395 77 67 64 204 0.000000 0.000000 0.000000 1.000000 0.000000 0.000000 0.000000
0.554936 -0.765550 -0.079755 251 240 212 204 0.000000 0.000000 0.000000 1.000000 0.000000 0.000000 0.000000
2.164910 -0.136647 -0.666173 222 189 148 204 0.000000 0.000000 0.000000 1.000000 0.000000 0.000000 0.000000
1.076990 0.858429 -0.027511 238 212 178 204 0.000000 0.000000 0.000000 1.000000 0.000000 0.000000 0.000000
0.768104 -1.123000 -0.287391 128 116 96 204 0.000000 0.000000 0.000000 1.000000 0.000000 0.000000 0.000000
1.600273 0.262446 -0.490463 0 0 0 204 0.000000 0.000000 0.000000 1.000000 0.000000 0.000000 0.000000
1.847225 0.495546 -0.366970 121 100 86 204 0.000000 0.000000 0.000000 1.000000 0.000000 0.000000 0.000000
1.779255 0.135295 -0.540503 81 76 73 204 0.000000 0.000000 0.000000 1.000000 0.000000 0.000000 0.000000
5.510561 -2.858251 -1.259203 131 126 122 204 0.000000 0.000000 0.000000 1.000000 0.000000 0.000000 0.000000
1.300234 -0.554912 -0.630304 38 35 33 204 0.000000 0.000000 0.000000 1.000000 0.000000 0.000000 0.000000
0.027812 -2.725257 -2.144773 185 166 137 204 0.000000 0.000000 0.000000 1.000000 0.000000 0.000000 0.000000
2.069820 -0.325678 -0.706642 63 54 46 204 0.000000 0.000000 0.000000 1.000000 0.000000 0.000000 0.000000
2.038760 -0.419292 -0.656702 169 134 104 204 0.000000 0.000000 0.000000 1.000000 0.000000 0.000000 0.000000
4.191736 -2.968303 -1.335292 0 0 0 204 0.000000 0.000000 0.000000 1.000000 0.000000 0.000000 0.000000
1.493399 -0.562964 -0.671754 0 0 0 204 0.000000 0.000000 0.000000 1.000000 0.000000 0.000000 0.000000
8.287898 2.715591 0.017859 46 41 37 204 0.000000 0.000000 0.000000 1.000000 0.000000 0.000000 0.000000
1.880000 0.368950 -0.526289 205 186 155 204 0.000000 0.000000 0.000000 1.000000 0.000000 0.000000 0.000000
0.628909 -0.820305 -0.042943 220 198 175 204 0.000000 0.000000 0.000000 1.000000 0.000000 0.000000 0.000000
1.429376 -0.059107 -0.540230 91 81 75 204 0.000000 0.000000 0.000000 1.000000 0.000000 0.000000 0.000000
2.391162 -0.206452 -0.711627 182 155 125 204 0.000000 0.000000 0.000000 1.000000 0.000000 0.000000 0.000000
1.957861 -0.108588 -0.633406 0 0 0 204 0.000000 0.000000 0.000000 1.000000 0.000000 0.000000 0.000000
-0.600091 -2.746425 -1.897291 111 100 95 204 0.000000 0.000000 0.000000 1.000000 0.000000 0.000000 0.000000
0.224137 -3.681787 -0.093067 155 141 140 204 0.000000 0.000000 0.000000 1.000000 0.000000 0.000000 0.000000
0.462301 -0.467916 0.057363 169 149 122 204 0.000000 0.000000 0.000000 1.000000 0.000000 0.000000 0.000000
1.613590 0.465426 -0.414901 170 155 135 204 0.000000 0.000000 0.000000 1.000000 0.000000 0.000000 0.000000
2.088883 0.189491 -0.563159 82 78 68 204 0.000000 0.000000 0.000000 1.000000 0.000000 0.000000 0.000000
-1.590787 -0.615748 11.106413 207 208 210 204 0.000000 0.000000 0.000000 1.000000 0.000000 0.000000 0.000000
1.797192 0.238983 -0.532803 0 0 0 204 0.000000 0.000000 0.000000 1.000000 0.000000 0.000000 0.000000
1.376094 1.037722 0.102537 180 156 128 204 0.000000 0.000000 0.000000 1.000000 0.000000 0.000000 0.000000
1.265109 2.441464 -8.699621 0 0 0 204 0.000000 0.000000 0.000000 1.000000 0.000000 0.000000 0.000000
-1.844854 -2.559458 -2.452490 254 252 253 204 0.000000 0.000000 0.000000 1.000000 0.000000 0.000000 0.000000
2.122504 -0.008236 -0.643926 225 201 175 204 0.000000 0.000000 0.000000 1.000000 0.000000 0.000000 0.000000
-0.881859 -2.554052 -2.400139 0 0 0 204 0.000000 0.000000 0.000000 1.000000 0.000000 0.000000 0.000000
1.942252 0.548033 -0.305580 68 57 51 204 0.000000 0.000000 0.000000 1.000000 0.000000 0.000000 0.000000
8.353557 -0.986701 -6.152292 41 34 26 204 0.000000 0.000000 0.000000 1.000000 0.000000 0.000000 0.000000
4.120186 -3.079846 -0.961559 18 19 18 204 0.000000 0.000000 0.000000 1.000000 0.000000 0.000000 0.000000
1.317223 -0.763534 -0.611648 84 71 59 204 0.000000 0.000000 0.000000 1.000000 0.000000 0.000000 0.000000
1.317590 0.008489 -0.501431 216 194 173 204 0.000000 0.000000 0.000000 1.000000 0.000000 0.000000 0.000000
1.211683 -0.051711 -0.475101 67 61 45 204 0.000000 0.000000 0.000000 1.000000 0.000000 0.000000 0.000000
2.342092 -0.298501 -0.709450 203 180 149 204 0.000000 0.000000 0.000000 1.000000 0.000000 0.000000 0.000000
3.152116 -0.127328 -0.708698 204 183 152 204 0.000000 0.000000 0.000000 1.000000 0.000000 0.000000 0.000000
1.598453 0.203940 -0.503309 108 102 90 204 0.000000 0.000000 0.000000 1.000000 0.000000 0.000000 0.000000
1.267600 -2.951167 -1.402575 103 112 120 204 0.000000 0.000000 0.000000 1.000000 0.000000 0.000000 0.000000
8.876472 3.625237 -7.963334 0 0 0 204 0.000000 0.000000 0.000000 1.000000 0.000000 0.000000 0.000000
0.505801 -0.037128 0.218326 168 152 129 204 0.000000 0.000000 0.000000 1.000000 0.000000 0.000000 0.000000
2.805378 -0.298991 -0.706700 173 152 125 204 0.000000 0.000000 0.000000 1.000000 0.000000 0.000000 0.000000
-0.465830 -0.671883 11.311165 186 187 191 204 0.000000 0.000000 0.000000 1.000000 0.000000 0.000000 0.000000
0.384840 -2.740789 -1.936606 132 80 56 204 0.000000 0.000000 0.000000 1.000000 0.000000 0.000000 0.000000
0.600540 -0.827438 -0.107579 189 169 142 204 0.000000 0.000000 0.000000 1.000000 0.000000 0.000000 0.000000
-1.520130 -1.071235 10.964896 2 4 3 204 0.000000 0.000000 0.000000 1.000000 0.000000 0.000000 0.000000
2.119168 -0.278684 -0.695179 184 163 135 204 0.000000 0.000000 0.000000 1.000000 0.000000 0.000000 0.000000
2.078981 -0.338779 -0.699853 211 182 150 204 0.000000 0.000000 0.000000 1.000000 0.000000 0.000000 0.000000
2.135460 0.015520 -0.645851 82 74 71 204 0.000000 0.000000 0.000000 1.000000 0.000000 0.000000 0.000000
1.970345 -0.214721 -0.657092 87 79 70 204 0.000000 0.000000 0.000000 1.000000 0.000000 0.000000 0.000000
1.771257 -0.167983 -0.617887 107 103 94 204 0.000000 0.000000 0.000000 1.000000 0.000000 0.000000 0.000000
1.808927 0.211778 -0.525496 51 45 34 204 0.000000 0.000000 0.000000 1.000000 0.000000 0.000000 0.000000
1.475622 -3.000804 -1.351362 0 0 0 204 0.000000 0.000000 0.000000 1.000000 0.000000 0.000000 0.000000
2.144170 -0.131748 -0.671754 0 0 0 204 0.000000 0.000000 0.000000 1.000000 0.000000 0.000000 0.000000
8.805386 1.633619 -5.358220 51 45 33 204 0.000000 0.000000 0.000000 1.000000 0.000000 0.000000 0.000000
1.952024 -0.133740 -0.634592 76 66 62 204 0.000000 0.000000 0.000000 1.000000 0.000000 0.000000 0.000000
1.590043 0.066430 -0.532330 61 60 42 204 0.000000 0.000000 0.000000 1.000000 0.000000 0.000000 0.000000
1.819742 -0.251428 -0.668065 64 56 48 204 0.000000 0.000000 0.000000 1.000000 0.000000 0.000000 0.000000
0.678808 0.762497 0.196861 255 253 232 204 0.000000 0.000000 0.000000 1.000000 0.000000 0.000000 0.000000
1.816081 0.760576 0.103067 100 85 65 204 0.000000 0.000000 0.000000 1.000000 0.000000 0.000000 0.000000
1.269887 -0.212039 -0.549933 74 71 66 204 0.000000 0.000000 0.000000 1.000000 0.000000 0.000000 0.000000
1.612760 -2.811478 -1.819683 0 0 0 204 0.000000 0.000000 0.000000 1.000000 0.000000 0.000000 0.000000
0.959004 -2.788369 -1.559647 0 0 0 204 0.000000 0.000000 0.000000 1.000000 0.000000 0.000000 0.000000
1.250536 0.949428 0.022891 0 0 0 204 0.000000 0.000000 0.000000 1.000000 0.000000 0.000000 0.000000
1.430200 -0.433602 -0.648330 45 40 36 204 0.000000 0.000000 0.000000 1.000000 0.000000 0.000000 0.000000
3.441038 0.435964 -0.602073 174 151 119 204 0.000000 0.000000 0.000000 1.000000 0.000000 0.000000 0.000000
0.440645 -0.547526 0.004267 182 166 133 204 0.000000 0.000000 0.000000 1.000000 0.000000 0.000000 0.000000
-0.142111 -2.588616 -2.456249 224 203 186 204 0.000000 0.000000 0.000000 1.000000 0.000000 0.000000 0.000000
1.878089 0.487631 -0.367827 51 42 37 204 0.000000 0.000000 0.000000 1.000000 0.000000 0.000000 0.000000
1.653227 -0.278609 -0.655398 194 174 147 204 0.000000 0.000000 0.000000 1.000000 0.000000 0.000000 0.000000
1.086994 -0.382445 -0.507359 237 218 202 204 0.000000 0.000000 0.000000 1.000000 0.000000 0.000000 0.000000
1.647929 0.041888 -0.564449 100 96 80 204 0.000000 0.000000 0.000000 1.000000 0.000000 0.000000 0.000000
0.757394 -0.980016 -0.016393 213 193 166 204 0.000000 0.000000 0.000000 1.000000 0.000000 0.000000 0.000000
1.803074 0.390991 -0.495459 208 182 149 204 0.000000 0.000000 0.000000 1.000000 0.000000 0.000000 0.000000
1.742517 0.289869 -0.507925 55 46 37 204 0.000000 0.000000 0.000000 1.000000 0.000000 0.000000 0.000000
1.727505 0.410608 -0.470655 0 0 0 204 0.000000 0.000000 0.000000 1.000000 0.000000 0.000000 0.000000
8.232696 2.752144 0.175713 0 0 0 204 0.000000 0.000000 0.000000 1.000000 0.000000 0.000000 0.000000
1.327219 -0.495313 -0.636334 188 146 106 204 0.000000 0.000000 0.000000 1.000000 0.000000 0.000000 0.000000
0.809537 -0.874412 0.150039 163 148 129 204 0.000000 0.000000 0.000000 1.000000 0.000000 0.000000 0.000000
-0.073430 -2.591776 -2.653017 234 231 226 204 0.000000 0.000000 0.000000 1.000000 0.000000 0.000000 0.000000
0.460990 -0.072984 0.251539 117 99 77 204 0.000000 0.000000 0.000000 1.000000 0.000000 0.000000 0.000000
1.728412 -0.238663 -0.677051 174 144 120 204 0.000000 0.000000 0.000000 1.000000 0.000000 0.000000 0.000000
1.705669 1.026943 0.091393 178 146 121 204 0.000000 0.000000 0.000000 1.000000 0.000000 0.000000 0.000000
1.430447 -0.542849 -0.657612 187 142 101 204 0.000000 0.000000 0.000000 1.000000 0.000000 0.000000 0.000000
0.711143 -1.083528 -0.250317 205 183 162 204 0.000000 0.000000 0.000000 1.000000 0.000000 0.000000 0.000000
8.626734 1.355289 -5.417760 34 24 12 204 0.000000 0.000000 0.000000 1.000000 0.000000 0.000000 0.000000
1.525012 0.184811 -0.499592 199 177 154 204 0.000000 0.000000 0.000000 1.000000 0.000000 0.000000 0.000000
-6.968345 -7.457224 22.375763 0 0 0 204 0.000000 0.000000 0.000000 1.000000 0.000000 0.000000 0.000000
1.596928 -0.015472 -0.553791 0 0 0 204 0.000000 0.000000 0.000000 1.000000 0.000000 0.000000 0.000000
0.731842 0.934851 0.307328 218 197 170 204 0.000000 0.000000 0.000000 1.000000 0.000000 0.000000 0.000000
1.889059 0.133441 -0.547126 222 187 159 204 0.000000 0.000000 0.000000 1.000000 0.000000 0.000000 0.000000
1.708846 -0.513511 -0.674332 219 198 169 204 0.000000 0.000000 0.000000 1.000000 0.000000 0.000000 0.000000
1.629956 0.159289 -0.508585 197 171 140 204 0.000000 0.000000 0.000000 1.000000 0.000000 0.000000 0.000000
0.438434 -0.517341 0.019711 253 240 212 204 0.000000 0.000000 0.000000 1.000000 0.000000 0.000000 0.000000
8.677003 0.060858 -7.225557 38 29 20 204 0.000000 0.000000 0.000000 1.000000 0.000000 0.000000 0.000000
1.078767 0.410457 0.666825 152 141 123 204 0.000000 0.000000 0.000000 1.000000 0.000000 0.000000 0.000000
2.286607 0.333972 -0.563412 211 187 153 204 0.000000 0.000000 0.000000 1.000000 0.000000 0.000000 0.000000
8.793566 2.793200 -6.694147 26 23 18 204 0.000000 0.000000 0.000000 1.000000 0.000000 0.000000 0.000000
2.374795 -0.607664 -0.597988 177 160 135 204 0.000000 0.000000 0.000000 1.000000 0.000000 0.000000 0.000000
8.227113 2.543482 0.393607 86 83 76 204 0.000000 0.000000 0.000000 1.000000 0.000000 0.000000 0.000000
0.848688 -1.051423 0.036418 0 0 0 204 0.000000 0.000000 0.000000 1.000000 0.000000 0.000000 0.000000
1.481419 0.032606 -0.535786 79 76 67 204 0.000000 0.000000 0.000000 1.000000 0.000000 0.000000 0.000000
1.924943 -0.275013 -0.686646 172 142 114 204 0.000000 0.000000 0.000000 1.000000 0.000000 0.000000 0.000000
0.686801 -1.055873 -0.247724 255 253 224 204 0.000000 0.000000 0.000000 1.000000 0.000000 0.000000 0.000000
2.076055 -0.194629 -0.652017 133 107 81 204 0.000000 0.000000 0.000000 1.000000 0.000000 0.000000 0.000000
1.907211 -0.215126 -0.651874 65 60 56 204 0.000000 0.000000 0.000000 1.000000 0.000000 0.000000 0.000000
1.542078 0.397063 -0.410208 229 207 168 204 0.000000 0.000000 0.000000 1.000000 0.000000 0.000000 0.000000
0.976162 -1.153971 -0.471370 191 171 134 204 0.000000 0.000000 0.000000 1.000000 0.000000 0.000000 0.000000
2.133574 0.185148 -0.569429 222 191 161 204 0.000000 0.000000 0.000000 1.000000 0.000000 0.000000 0.000000
2.380862 0.353354 -0.559631 178 157 136 204 0.000000 0.000000 0.000000 1.000000 0.000000 0.000000 0.000000
3.199481 -0.078690 -0.729748 203 183 150 204 0.000000 0.000000 0.000000 1.000000 0.000000 0.000000 0.000000
1.826152 -1.190829 -0.447574 249 216 183 204 0.000000 0.000000 0.000000 1.000000 0.000000 0.000000 0.000000
1.787733 0.142911 -0.540812 0 0 0 204 0.000000 0.000000 0.000000 1.000000 0.000000 0.000000 0.000000
1.698164 -0.208406 -0.640274 90 81 64 204 0.000000 0.000000 0.000000 1.000000 0.000000 0.000000 0.000000
2.099217 -0.185157 -0.656830 58 49 44 204 0.000000 0.000000 0.000000 1.000000 0.000000 0.000000 0.000000
3.689364 -2.931532 -1.203996 0 0 0 204 0.000000 0.000000 0.000000 1.000000 0.000000 0.000000 0.000000
7.786120 -0.071990 8.673128 0 0 0 204 0.000000 0.000000 0.000000 1.000000 0.000000 0.000000 0.000000
2.382066 0.474579 -0.523424 185 164 137 204 0.000000 0.000000 0.000000 1.000000 0.000000 0.000000 0.000000
3.028134 -0.228148 -0.703896 185 160 129 204 0.000000 0.000000 0.000000 1.000000 0.000000 0.000000 0.000000
1.436229 0.860071 -0.002905 126 107 83 204 0.000000 0.000000 0.000000 1.000000 0.000000 0.000000 0.000000
8.904165 -0.551605 -6.968658 65 56 47 204 0.000000 0.000000 0.000000 1.000000 0.000000 0.000000 0.000000
0.696741 0.689772 0.294974 234 212 180 204 0.000000 0.000000 0.000000 1.000000 0.000000 0.000000 0.000000
0.705445 0.808841 0.243336 0 0 0 204 0.000000 0.000000 0.000000 1.000000 0.000000 0.000000 0.000000
1.223154 -1.372662 -0.319227 183 161 138 204 0.000000 0.000000 0.000000 1.000000 0.000000 0.000000 0.000000
0.508555 -0.673640 -0.133671 231 212 182 204 0.000000 0.000000 0.000000 1.000000 0.000000 0.000000 0.000000
3.278058 -0.061907 -0.758106 194 173 142 204 0.000000 0.000000 0.000000 1.000000 0.000000 0.000000 0.000000
0.797551 0.205232 -0.186859 226 209 181 204 0.000000 0.000000 0.000000 1.000000 0.000000 0.000000 0.000000
-0.617667 -2.469617 -2.688797 138 181 198 204 0.000000 0.000000 0.000000 1.000000 0.000000 0.000000 0.000000
0.377520 -2.597790 -2.474586 224 216 213 204 0.000000 0.000000 0.000000 1.000000 0.000000 0.000000 0.000000
-0.222084 -2.736301 -1.944380 219 212 202 204 0.000000 0.000000 0.000000 1.000000 0.000000 0.000000 0.000000
0.283252 -2.571287 -2.580775 119 112 104 204 0.000000 0.000000 0.000000 1.000000 0.000000 0.000000 0.000000
0.621629 0.625810 0.201330 0 0 0 204 0.000000 0.000000 0.000000 1.000000 0.000000 0.000000 0.000000
4.250875 -2.924585 -1.297483 0 0 0 204 0.000000 0.000000 0.000000 1.000000 0.000000 0.000000 0.000000
1.693913 1.099462 0.089821 241 225 200 204 0.000000 0.000000 0.000000 1.000000 0.000000 0.000000 0.000000
8.777573 2.006617 -5.825553 46 36 27 204 0.000000 0.000000 0.000000 1.000000 0.000000 0.000000 0.000000
-0.956905 -2.869654 -1.530592 236 226 214 204 0.000000 0.000000 0.000000 1.000000 0.000000 0.000000 0.000000
1.326949 -0.701594 -0.651629 107 105 90 204 0.000000 0.000000 0.000000 1.000000 0.000000 0.000000 0.000000
0.354253 -2.655106 -2.289829 157 148 138 204 0.000000 0.000000 0.000000 1.000000 0.000000 0.000000 0.000000
1.936854 0.026930 -0.608917 200 171 131 204 0.000000 0.000000 0.000000 1.000000 0.000000 0.000000 0.000000
-0.684233 -2.909482 -1.354642 114 109 80 204 0.000000 0.000000 0.000000 1.000000 0.000000 0.000000 0.000000
1.802332 0.401334 -0.484226 0 0 0 204 0.000000 0.000000 0.000000 1.000000 0.000000 0.000000 0.000000
2.250685 0.600557 -0.205518 183 162 131 204 0.000000 0.000000 0.000000 1.000000 0.000000 0.000000 0.000000
8.637627 1.728999 -5.068128 46 36 27 204 0.000000 0.000000 0.000000 1.000000 0.000000 0.000000 0.000000
2.707283 0.192355 -0.641098 211 183 154 204 0.000000 0.000000 0.000000 1.000000 0.000000 0.000000 0.000000
8.164972 -1.819715 0.418916 49 40 33 204 0.000000 0.000000 0.000000 1.000000 0.000000 0.000000 0.000000
1.501508 -1.291351 -0.332710 120 102 80 204 0.000000 0.000000 0.000000 1.000000 0.000000 0.000000 0.000000
-0.647842 -2.513579 -2.574136 174 152 130 204 0.000000 0.000000 0.000000 1.000000 0.000000 0.000000 0.000000
-1.558019 -7.697757 11.981258 76 73 66 204 0.000000 0.000000 0.000000 1.000000 0.000000 0.000000 0.000000
0.725340 0.917508 0.248418 0 0 0 204 0.000000 0.000000 0.000000 1.000000 0.000000 0.000000 0.000000
2.366402 -0.062457 -0.682960 216 193 159 204 0.000000 0.000000 0.000000 1.000000 0.000000 0.000000 0.000000
1.559750 0.172755 -0.499327 53 51 48 204 0.000000 0.000000 0.000000 1.000000 0.000000 0.000000 0.000000
1.752440 -0.375546 -0.667172 87 70 57 204 0.000000 0.000000 0.000000 1.000000 0.000000 0.000000 0.000000
4.064941 -3.150531 -0.776627 1 6 9 204 0.000000 0.000000 0.000000 1.000000 0.000000 0.000000 0.000000
1.400780 -0.142830 -0.558646 178 153 125 204 0.000000 0.000000 0.000000 1.000000 0.000000 0.000000 0.000000
0.713394 -0.869607 0.037689 208 188 161 204 0.000000 0.000000 0.000000 1.000000 0.000000 0.000000 0.000000
1.775026 0.330833 -0.515412 73 59 46 204 0.000000 0.000000 0.000000 1.000000 0.000000 0.000000 0.000000
0.546778 -0.727877 -0.045562 232 216 191 204 0.000000 0.000000 0.000000 1.000000 0.000000 0.000000 0.000000
1.956999 0.489255 -0.354408 80 66 58 204 0.000000 0.000000 0.000000 1.000000 0.000000 0.000000 0.000000
3.481708 -0.161405 -0.728469 166 146 119 204 0.000000 0.000000 0.000000 1.000000 0.000000 0.000000 0.000000
0.445552 -2.690440 -2.135379 55 62 78 204 0.000000 0.000000 0.000000 1.000000 0.000000 0.000000 0.000000
0.580082 -0.651523 0.080518 217 197 170 204 0.000000 0.000000 0.000000 1.000000 0.000000 0.000000 0.000000
1.158364 -0.477568 -0.549247 122 106 91 204 0.000000 0.000000 0.000000 1.000000 0.000000 0.000000 0.000000
9.417145 0.477212 -9.582452 32 22 12 204 0.000000 0.000000 0.000000 1.000000 0.000000 0.000000 0.000000
3.413079 0.733224 -0.261070 169 142 116 204 0.000000 0.000000 0.000000 1.000000 0.000000 0.000000 0.000000
1.984647 -0.249129 -0.677308 112 87 75 204 0.000000 0.000000 0.000000 1.000000 0.000000 0.000000 0.000000
8.853202 2.205421 -5.023351 56 46 36 204 0.000000 0.000000 0.000000 1.000000 0.000000 0.000000 0.000000
1.681433 0.125931 -0.516932 197 169 130 204 0.000000 0.000000 0.000000 1.000000 0.000000 0.000000 0.000000
-0.804469 -2.703811 -2.057201 251 251 253 204 0.000000 0.000000 0.000000 1.000000 0.000000 0.000000 0.000000
1.984110 -0.478869 -0.649820 36 31 27 204 0.000000 0.000000 0.000000 1.000000 0.000000 0.000000 0.000000
0.663091 -0.953494 -0.144200 243 228 199 204 0.000000 0.000000 0.000000 1.000000 0.000000 0.000000 0.000000
1.157650 -0.439122 -0.560454 123 118 102 204 0.000000 0.000000 0.000000 1.000000 0.000000 0.000000 0.000000
1.783502 -1.366896 -0.551864 235 205 167 204 0.000000 0.000000 0.000000 1.000000 0.000000 0.000000 0.000000
2.768231 -0.457482 -0.708329 164 140 114 204 0.000000 0.000000 0.000000 1.000000 0.000000 0.000000 0.000000
2.071875 -0.012585 -0.635931 114 102 86 204 0.000000 0.000000 0.000000 1.000000 0.000000 0.000000 0.000000
0.877860 -0.902631 0.148045 157 144 127 204 0.000000 0.000000 0.000000 1.000000 0.000000 0.000000 0.000000
1.969550 0.062665 -0.597113 0 0 0 204 0.000000 0.000000 0.000000 1.000000 0.000000 0.000000 0.000000
2.713944 0.268904 -0.584353 0 0 0 204 0.000000 0.000000 0.000000 1.000000 0.000000 0.000000 0.000000
1.732286 0.534258 -0.346319 156 139 122 204 0.000000 0.000000 0.000000 1.000000 0.000000 0.000000 0.000000
8.304752 -0.335140 6.763941 35 34 30 204 0.000000 0.000000 0.000000 1.000000 0.000000 0.000000 0.000000
1.691401 0.935318 0.106842 147 123 99 204 0.000000 0.000000 0.000000 1.000000 0.000000 0.000000 0.000000
1.677868 0.407776 -0.459341 0 0 0 204 0.000000 0.000000 0.000000 1.000000 0.000000 0.000000 0.000000
2.717892 0.502561 -0.496457 202 178 150 204 0.000000 0.000000 0.000000 1.000000 0.000000 0.000000 0.000000
2.095882 -0.319561 -0.702561 183 143 118 204 0.000000 0.000000 0.000000 1.000000 0.000000 0.000000 0.000000
1.349677 0.910916 0.005777 189 168 139 204 0.000000 0.000000 0.000000 1.000000 0.000000 0.000000 0.000000
1.687751 -0.045562 -0.581522 215 193 163 204 0.000000 0.000000 0.000000 1.000000 0.000000 0.000000 0.000000
0.600874 -0.867775 -0.126277 171 148 121 204 0.000000 0.000000 0.000000 1.000000 0.000000 0.000000 0.000000
3.410089 0.065369 -0.778942 142 120 96 204 0.000000 0.000000 0.000000 1.000000 0.000000 0.000000 0.000000
2.016706 -0.014571 -0.641087 83 74 59 204 0.000000 0.000000 0.000000 1.000000 0.000000 0.000000 0.000000
-0.674921 -0.688548 11.289478 183 183 185 204 0.000000 0.000000 0.000000 1.000000 0.000000 0.000000 0.000000
-0.649239 -2.860927 -1.517415 173 165 158 204 0.000000 0.000000 0.000000 1.000000 0.000000 0.000000 0.000000
0.438111 -0.437806 0.089145 185 171 144 204 0.000000 0.000000 0.000000 1.000000 0.000000 0.000000 0.000000
7.793877 -0.430344 10.650837 16 2 0 204 0.000000 0.000000 0.000000 1.000000 0.000000 0.000000 0.000000
1.637692 0.123962 -0.510599 103 96 90 204 0.000000 0.000000 0.000000 1.000000 0.000000 0.000000 0.000000
4.201719 -2.977793 -1.289415 193 189 182 204 0.000000 0.000000 0.000000 1.000000 0.000000 0.000000 0.000000
1.991750 0.409574 -0.516732 77 69 58 204 0.000000 0.000000 0.000000 1.000000 0.000000 0.000000 0.000000
1.628048 0.034721 -0.564345 79 79 71 204 0.000000 0.000000 0.000000 1.000000 0.000000 0.000000 0.000000
2.018633 -0.433960 -0.654424 203 168 134 204 0.000000 0.000000 0.000000 1.000000 0.000000 0.000000 0.000000
1.778489 0.531793 -0.341188 123 98 76 204 0.000000 0.000000 0.000000 1.000000 0.000000 0.000000 0.000000
1.248506 1.084507 0.438234 184 162 141 204 0.000000 0.000000 0.000000 1.000000 0.000000 0.000000 0.000000
1.957850 -0.458688 -0.650221 158 138 114 204 0.000000 0.000000 0.000000 1.000000 0.000000 0.000000 0.000000
0.749883 0.023443 -0.408999 0 0 0 204 0.000000 0.000000 0.000000 1.000000 0.000000 0.000000 0.000000
8.232779 2.613500 0.247249 0 0 0 204 0.000000 0.000000 0.000000 1.000000 0.000000 0.000000 0.000000
2.557291 -0.369503 -0.736174 159 133 110 204 0.000000 0.000000 0.000000 1.000000 0.000000 0.000000 0.000000
1.485139 0.936853 0.011320 157 137 111 204 0.000000 0.000000 0.000000 1.000000 0.000000 0.000000 0.000000
1.842144 0.432676 -0.431717 63 53 44 204 0.000000 0.000000 0.000000 1.000000 0.000000 0.000000 0.000000
-0.399467 -2.570330 -2.858966 203 194 185 204 0.000000 0.000000 0.000000 1.000000 0.000000 0.000000 0.000000
1.358398 -0.010548 -0.512783 146 119 105 204 0.000000 0.000000 0.000000 1.000000 0.000000 0.000000 0.000000
-0.862067 -2.697417 -2.066429 239 238 244 204 0.000000 0.000000 0.000000 1.000000 0.000000 0.000000 0.000000
1.814182 0.457883 -0.406434 37 35 34 204 0.000000 0.000000 0.000000 1.000000 0.000000 0.000000 0.000000
8.824275 1.653735 -5.377520 0 0 0 204 0.000000 0.000000 0.000000 1.000000 0.000000 0.000000 0.000000
3.695830 0.521088 -0.502393 164 142 121 204 0.000000 0.000000 0.000000 1.000000 0.000000 0.000000 0.000000
2.037383 0.028504 -0.615122 216 181 147 204 0.000000 0.000000 0.000000 1.000000 0.000000 0.000000 0.000000
2.680028 -0.226206 -0.706316 158 138 114 204 0.000000 0.000000 0.000000 1.000000 0.000000 0.000000 0.000000
1.854186 -3.872210 0.016099 35 61 59 204 0.000000 0.000000 0.000000 1.000000 0.000000 0.000000 0.000000
2.149955 -0.253131 -0.692210 61 54 42 204 0.000000 0.000000 0.000000 1.000000 0.000000 0.000000 0.000000
0.867932 -0.234087 -0.405190 188 171 151 204 0.000000 0.000000 0.000000 1.000000 0.000000 0.000000 0.000000
-1.580695 -2.778059 -2.086647 208 168 177 204 0.000000 0.000000 0.000000 1.000000 0.000000 0.000000 0.000000
0.578778 -0.676509 0.053967 227 210 181 204 0.000000 0.000000 0.000000 1.000000 0.000000 0.000000 0.000000
0.511224 -0.649944 -0.036308 142 126 93 204 0.000000 0.000000 0.000000 1.000000 0.000000 0.000000 0.000000
1.853357 -1.255262 -0.482727 193 162 133 204 0.000000 0.000000 0.000000 1.000000 0.000000 0.000000 0.000000
0.166121 -2.643441 -2.256541 236 227 222 204 0.000000 0.000000 0.000000 1.000000 0.000000 0.000000 0.000000
2.208506 0.478565 -0.463395 179 161 128 204 0.000000 0.000000 0.000000 1.000000 0.000000 0.000000 0.000000
-0.919922 -2.930263 -1.089907 226 127 83 204 0.000000 0.000000 0.000000 1.000000 0.000000 0.000000 0.000000
3.152499 -0.310916 -0.641479 174 144 116 204 0.000000 0.000000 0.000000 1.000000 0.000000 0.000000 0.000000
1.837399 0.294723 -0.523934 188 157 130 204 0.000000 0.000000 0.000000 1.000000 0.000000 0.000000 0.000000
3.701009 -0.245668 -0.744540 0 0 0 204 0.000000 0.000000 0.000000 1.000000 0.000000 0.000000 0.000000
1.850311 0.277867 -0.516833 185 155 121 204 0.000000 0.000000 0.000000 1.000000 0.000000 0.000000 0.000000
0.612172 -0.853132 -0.118196 211 192 168 204 0.000000 0.000000 0.000000 1.000000 0.000000 0.000000 0.000000
1.745739 -0.176496 -0.614748 50 51 37 204 0.000000 0.000000 0.000000 1.000000 0.000000 0.000000 0.000000
2.145652 0.458514 -0.478562 0 0 0 204 0.000000 0.000000 0.000000 1.000000 0.000000 0.000000 0.000000
0.464090 0.077212 0.263333 0 0 0 204 0.000000 0.000000 0.000000 1.000000 0.000000 0.000000 0.000000
1.831042 -0.402995 -0.644078 72 63 52 204 0.000000 0.000000 0.000000 1.000000 0.000000 0.000000 0.000000
2.925267 0.057955 -0.748638 169 141 117 204 0.000000 0.000000 0.000000 1.000000 0.000000 0.000000 0.000000
1.957981 0.048422 -0.617830 90 77 61 204 0.000000 0.000000 0.000000 1.000000 0.000000 0.000000 0.000000
1.826527 0.393003 -0.518372 192 162 126 204 0.000000 0.000000 0.000000 1.000000 0.000000 0.000000 0.000000
1.692006 0.034668 -0.564518 0 0 0 204 0.000000 0.000000 0.000000 1.000000 0.000000 0.000000 0.000000
2.958137 -0.103611 -0.708888 118 103 85 204 0.000000 0.000000 0.000000 1.000000 0.000000 0.000000 0.000000
3.649442 0.222306 -0.730502 189 166 134 204 0.000000 0.000000 0.000000 1.000000 0.000000 0.000000 0.000000
0.728734 2.292907 -9.028021 205 199 187 204 0.000000 0.000000 0.000000 1.000000 0.000000 0.000000 0.000000
2.055954 0.511315 -0.392091 88 74 62 204 0.000000 0.000000 0.000000 1.000000 0.000000 0.000000 0.000000
1.596143 0.888352 0.042055 0 0 0 204 0.000000 0.000000 0.000000 1.000000 0.000000 0.000000 0.000000
-0.384043 -2.633384 -2.219651 189 190 185 204 0.000000 0.000000 0.000000 1.000000 0.000000 0.000000 0.000000
1.160189 -0.623258 -0.597930 240 214 179 204 0.000000 0.000000 0.000000 1.000000 0.000000 0.000000 0.000000
8.662300 1.518945 -5.569214 42 32 22 204 0.000000 0.000000 0.000000 1.000000 0.000000 0.000000 0.000000
0.497949 -0.535031 0.059528 91 81 66 204 0.000000 0.000000 0.000000 1.000000 0.000000 0.000000 0.000000
1.490072 1.113912 -0.891097 0 0 0 204 0.000000 0.000000 0.000000 1.000000 0.000000 0.000000 0.000000
0.844216 -1.168539 -0.311122 149 133 110 204 0.000000 0.000000 0.000000 1.000000 0.000000 0.000000 0.000000
1.775102 -0.498304 -0.682463 86 83 78 204 0.000000 0.000000 0.000000 1.000000 0.000000 0.000000 0.000000
-5.728926 -0.737725 -3.660415 183 182 178 204 0.000000 0.000000 0.000000 1.000000 0.000000 0.000000 0.000000
2.042822 -0.545354 -0.646657 55 50 44 204 0.000000 0.000000 0.000000 1.000000 0.000000 0.000000 0.000000
1.053432 0.255092 -0.330703 206 180 145 204 0.000000 0.000000 0.000000 1.000000 0.000000 0.000000 0.000000
0.971365 -2.868303 -1.629393 0 0 0 204 0.000000 0.000000 0.000000 1.000000 0.000000 0.000000 0.000000
1.744749 0.162026 -0.520449 210 182 161 204 0.000000 0.000000 0.000000 1.000000 0.000000 0.000000 0.000000
1.370344 0.673753 -0.225332 0 0 0 204 0.000000 0.000000 0.000000 1.000000 0.000000 0.000000 0.000000
2.124204 0.465012 -0.477396 156 130 110 204 0.000000 0.000000 0.000000 1.000000 0.000000 0.000000 0.000000
2.169236 0.491426 -0.437248 82 78 67 204 0.000000 0.000000 0.000000 1.000000 0.000000 0.000000 0.000000
-0.033176 -3.838017 -0.322023 53 48 45 204 0.000000 0.000000 0.000000 1.000000 0.000000 0.000000 0.000000
1.517459 1.011935 0.489822 101 88 71 204 0.000000 0.000000 0.000000 1.000000 0.000000 0.000000 0.000000
1.725706 0.313666 -0.500898 212 184 162 204 0.000000 0.000000 0.000000 1.000000 0.000000 0.000000 0.000000
-0.434396 -0.770747 11.263336 187 188 193 204 0.000000 0.000000 0.000000 1.000000 0.000000 0.000000 0.000000
1.962909 0.499998 -0.325302 146 111 87 204 0.000000 0.000000 0.000000 1.000000 0.000000 0.000000 0.000000
2.190309 -0.553462 -0.632031 152 132 108 204 0.000000 0.000000 0.000000 1.000000 0.000000 0.000000 0.000000
1.587235 -0.005146 -0.547403 92 87 84 204 0.000000 0.000000 0.000000 1.000000 0.000000 0.000000 0.000000
-0.632225 -2.766220 -1.831608 225 207 203 204 0.000000 0.000000 0.000000 1.000000 0.000000 0.000000 0.000000
1.855293 0.408762 -0.497094 80 76 69 204 0.000000 0.000000 0.000000 1.000000 0.000000 0.000000 0.000000
1.818455 -2.968381 -0.941956 97 136 131 204 0.000000 0.000000 0.000000 1.000000 0.000000 0.000000 0.000000
0.448451 0.253449 0.157557 170 149 120 204 0.000000 0.000000 0.000000 1.000000 0.000000 0.000000 0.000000
2.451646 -6.091907 9.527721 0 0 0 204 0.000000 0.000000 0.000000 1.000000 0.000000 0.000000 0.000000
-0.979882 -0.746047 11.311698 0 12 8 204 0.000000 0.000000 0.000000 1.000000 0.000000 0.000000 0.000000
0.880037 -1.158474 -0.221005 119 104 83 204 0.000000 0.000000 0.000000 1.000000 0.000000 0.000000 0.000000
1.502551 0.791534 -0.013118 103 85 65 204 0.000000 0.000000 0.000000 1.000000 0.000000 0.000000 0.000000
1.674661 0.988359 0.097068 206 184 147 204 0.000000 0.000000 0.000000 1.000000 0.000000 0.000000 0.000000
1.633364 -1.414198 -0.524139 255 245 214 204 0.000000 0.000000 0.000000 1.000000 0.000000 0.000000 0.000000
1.827027 0.538660 -0.344254 52 45 41 204 0.000000 0.000000 0.000000 1.000000 0.000000 0.000000 0.000000
1.769680 0.547218 -0.334089 164 134 106 204 0.000000 0.000000 0.000000 1.000000 0.000000 0.000000 0.000000
0.805311 -0.893338 0.101282 173 152 131 204 0.000000 0.000000 0.000000 1.000000 0.000000 0.000000 0.000000
1.958551 0.532205 -0.316785 149 123 102 204 0.000000 0.000000 0.000000 1.000000 0.000000 0.000000 0.000000
2.362517 0.458529 -0.496423 206 182 156 204 0.000000 0.000000 0.000000 1.000000 0.000000 0.000000 0.000000
1.833100 0.196873 -0.543731 165 144 125 204 0.000000 0.000000 0.000000 1.000000 0.000000 0.000000 0.000000
1.596606 -0.001150 -0.558301 85 78 72 204 0.000000 0.000000 0.000000 1.000000 0.000000 0.000000 0.000000
-0.562015 -3.898804 -0.251552 136 131 135 204 0.000000 0.000000 0.000000 1.000000 0.000000 0.000000 0.000000
-0.885880 -0.273621 -0.075385 44 40 37 204 0.000000 0.000000 0.000000 1.000000 0.000000 0.000000 0.000000
3.875709 -2.909577 -1.394578 176 170 158 204 0.000000 0.000000 0.000000 1.000000 0.000000 0.000000 0.000000
1.668291 0.081577 -0.542295 109 103 89 204 0.000000 0.000000 0.000000 1.000000 0.000000 0.000000 0.000000
3.558597 -2.924219 -1.290969 40 44 43 204 0.000000 0.000000 0.000000 1.000000 0.000000 0.000000 0.000000
1.878355 0.591372 -0.282656 171 142 108 204 0.000000 0.000000 0.000000 1.000000 0.000000 0.000000 0.000000
3.435093 0.107145 -0.768295 217 196 165 204 0.000000 0.000000 0.000000 1.000000 0.000000 0.000000 0.000000
8.277185 2.031123 1.087149 73 69 60 204 0.000000 0.000000 0.000000 1.000000 0.000000 0.000000 0.000000
2.069106 0.421195 -0.512145 76 68 65 204 0.000000 0.000000 0.000000 1.000000 0.000000 0.000000 0.000000
1.828103 0.418103 -0.487838 217 194 163 204 0.000000 0.000000 0.000000 1.000000 0.000000 0.000000 0.000000
1.139151 -0.446718 -0.554727 174 139 99 204 0.000000 0.000000 0.000000 1.000000 0.000000 0.000000 0.000000
-1.863875 -0.624185 11.117161 172 178 178 204 0.000000 0.000000 0.000000 1.000000 0.000000 0.000000 0.000000
1.195606 1.198749 0.386667 181 171 146 204 0.000000 0.000000 0.000000 1.000000 0.000000 0.000000 0.000000
-0.772743 -2.691870 -2.071917 211 216 219 204 0.000000 0.000000 0.000000 1.000000 0.000000 0.000000 0.000000
2.145781 -0.197529 -0.657730 0 0 0 204 0.000000 0.000000 0.000000 1.000000 0.000000 0.000000 0.000000
8.805335 -0.988984 -5.242364 40 33 27 204 0.000000 0.000000 0.000000 1.000000 0.000000 0.000000 0.000000
2.131716 -0.195138 -0.662498 190 163 134 204 0.000000 0.000000 0.000000 1.000000 0.000000 0.000000 0.000000
3.152499 -0.310916 -0.641479 174 144 116 204 0.000000 0.000000 0.000000 1.000000 0.000000 0.000000 0.000000
1.792135 -0.151462 -0.616724 84 82 70 204 0.000000 0.000000 0.000000 1.000000 0.000000 0.000000 0.000000
0.460267 -0.552056 0.007000 0 0 0 204 0.000000 0.000000 0.000000 1.000000 0.000000 0.000000 0.000000
1.113200 -0.122851 -0.457761 180 141 103 204 0.000000 0.000000 0.000000 1.000000 0.000000 0.000000 0.000000
1.218833 -0.235732 -0.532035 92 86 72 204 0.000000 0.000000 0.000000 1.000000 0.000000 0.000000 0.000000
1.932277 -0.191702 -0.648896 66 57 50 204 0.000000 0.000000 0.000000 1.000000 0.000000 0.000000 0.000000
0.471827 -0.142694 0.178639 161 146 117 204 0.000000 0.000000 0.000000 1.000000 0.000000 0.000000 0.000000
2.128028 0.072192 -0.632575 92 81 75 204 0.000000 0.000000 0.000000 1.000000 0.000000 0.000000 0.000000
4.989793 -3.043082 -0.825838 144 143 141 204 0.000000 0.000000 0.000000 1.000000 0.000000 0.000000 0.000000
1.905363 0.460462 -0.410318 57 54 44 204 0.000000 0.000000 0.000000 1.000000 0.000000 0.000000 0.000000
3.030687 -0.348895 -0.677998 177 157 130 204 0.000000 0.000000 0.000000 1.000000 0.000000 0.000000 0.000000
-1.654045 -2.519805 -2.660796 250 231 238 204 0.000000 0.000000 0.000000 1.000000 0.000000 0.000000 0.000000
1.177490 -0.788052 -0.557628 255 253 212 204 0.000000 0.000000 0.000000 1.000000 0.000000 0.000000 0.000000
5.142418 -2.877152 -1.309230 35 35 25 204 0.000000 0.000000 0.000000 1.000000 0.000000 0.000000 0.000000
1.648340 0.463210 -0.435102 70 63 57 204 0.000000 0.000000 0.000000 1.000000 0.000000 0.000000 0.000000
1.902379 -0.458999 -0.656917 59 51 46 204 0.000000 0.000000 0.000000 1.000000 0.000000 0.000000 0.000000
1.116156 1.054727 0.111556 201 180 149 204 0.000000 0.000000 0.000000 1.000000 0.000000 0.000000 0.000000
0.685308 -0.246828 0.268452 133 118 95 204 0.000000 0.000000 0.000000 1.000000 0.000000 0.000000 0.000000
2.803566 0.260783 -0.574018 207 191 158 204 0.000000 0.000000 0.000000 1.000000 0.000000 0.000000 0.000000
1.568941 -0.706900 -0.657780 163 142 113 204 0.000000 0.000000 0.000000 1.000000 0.000000 0.000000 0.000000
1.695737 -0.162318 -0.609251 200 166 141 204 0.000000 0.000000 0.000000 1.000000 0.000000 0.000000 0.000000
2.173362 -0.074321 -0.661180 70 57 55 204 0.000000 0.000000 0.000000 1.000000 0.000000 0.000000 0.000000
2.829607 0.225809 -0.629682 169 143 118 204 0.000000 0.000000 0.000000 1.000000 0.000000 0.000000 0.000000
1.431636 0.403326 -0.422591 234 220 194 204 0.000000 0.000000 0.000000 1.000000 0.000000 0.000000 0.000000
2.045512 -0.372258 -0.684808 95 89 75 204 0.000000 0.000000 0.000000 1.000000 0.000000 0.000000 0.000000
1.879464 -1.127687 -0.436520 0 0 0 204 0.000000 0.000000 0.000000 1.000000 0.000000 0.000000 0.000000
-0.095962 -2.727274 -1.979398 218 205 171 204 0.000000 0.000000 0.000000 1.000000 0.000000 0.000000 0.000000
-0.266479 -2.645791 -2.228758 239 236 238 204 0.000000 0.000000 0.000000 1.000000 0.000000 0.000000 0.000000
0.950891 1.099132 0.310584 129 116 97 204 0.000000 0.000000 0.000000 1.000000 0.000000 0.000000 0.000000
1.767426 0.386146 -0.493508 55 57 51 204 0.000000 0.000000 0.000000 1.000000 0.000000 0.000000 0.000000
1.451681 1.092893 0.455834 111 95 80 204 0.000000 0.000000 0.000000 1.000000 0.000000 0.000000 0.000000
1.457227 -0.382403 -0.651769 149 114 76 204 0.000000 0.000000 0.000000 1.000000 0.000000 0.000000 0.000000
0.463445 0.083521 0.255385 0 0 0 204 0.000000 0.000000 0.000000 1.000000 0.000000 0.000000 0.000000
0.945515 0.745119 -0.063290 224 201 170 204 0.000000 0.000000 0.000000 1.000000 0.000000 0.000000 0.000000
1.508687 -0.678404 -0.665375 79 59 50 204 0.000000 0.000000 0.000000 1.000000 0.000000 0.000000 0.000000
0.608107 -2.708745 -1.963004 0 0 0 204 0.000000 0.000000 0.000000 1.000000 0.000000 0.000000 0.000000
-6.992903 -7.004557 22.535856 0 0 0 204 0.000000 0.000000 0.000000 1.000000 0.000000 0.000000 0.000000
1.874609 -0.176082 -0.621111 91 77 74 204 0.000000 0.000000 0.000000 1.000000 0.000000 0.000000 0.000000
