ply
format ascii 1.0
element vertex 449
property float x
property float y
property float z
property uchar red
property uchar green
property uchar blue
property uchar alpha
property float scale_0
property float scale_1
property float scale_2
property float rot_0
property float rot_1
property float rot_2
property float rot_3
end_header
2.507629 0.124200 -0.657052 163 132 104 204 0.000000 0.000000 0.000000 1.000000 0.000000 0.000000 0.000000
1.520620 0.025784 -0.551887 195 169 132 204 0.000000 0.000000 0.000000 1.000000 0.000000 0.000000 0.000000
-1.021294 -1.041468 11.026887 200 200 200 204 0.000000 0.000000 0.000000 1.000000 0.000000 0.000000 0.000000
1.375785 -1.413990 -0.447195 212 187 157 204 0.000000 0.000000 0.000000 1.000000 0.000000 0.000000 0.000000
1.677717 0.332084 -0.505572 186 157 125 204 0.000000 0.000000 0.000000 1.000000 0.000000 0.000000 0.000000
2.336231 0.224297 -0.595652 181 156 126 204 0.000000 0.000000 0.000000 1.000000 0.000000 0.000000 0.000000
1.301448 -0.146666 -0.537038 193 153 117 204 0.000000 0.000000 0.000000 1.000000 0.000000 0.000000 0.000000
1.886917 0.435134 -0.490006 78 71 63 204 0.000000 0.000000 0.000000 1.000000 0.000000 0.000000 0.000000
8.027802 -0.722968 -4.616628 35 26 19 204 0.000000 0.000000 0.000000 1.000000 0.000000 0.000000 0.000000
1.429443 -0.554055 -0.665531 198 168 132 204 0.000000 0.000000 0.000000 1.000000 0.000000 0.000000 0.000000
9.121055 0.767762 -7.743641 37 30 20 204 0.000000 0.000000 0.000000 1.000000 0.000000 0.000000 0.000000
1.485961 -1.307396 -0.248510 174 152 128 204 0.000000 0.000000 0.000000 1.000000 0.000000 0.000000 0.000000
1.514866 -0.291787 -0.642515 59 48 36 204 0.000000 0.000000 0.000000 1.000000 0.000000 0.000000 0.000000
8.620045 2.742686 -5.504509 0 0 0 204 0.000000 0.000000 0.000000 1.000000 0.000000 0.000000 0.000000
3.413079 0.733224 -0.261070 169 142 116 204 0.000000 0.000000 0.000000 1.000000 0.000000 0.000000 0.000000
1.190415 -1.118523 -0.501520 223 197 164 204 0.000000 0.000000 0.000000 1.000000 0.000000 0.000000 0.000000
1.514473 0.217595 -0.492958 188 152 130 204 0.000000 0.000000 0.000000 1.000000 0.000000 0.000000 0.000000
1.191619 -0.202734 -0.517383 75 71 66 204 0.000000 0.000000 0.000000 1.000000 0.000000 0.000000 0.000000
0.292215 0.039675 0.066813 220 207 198 204 0.000000 0.000000 0.000000 1.000000 0.000000 0.000000 0.000000
0.878840 -0.018182 0.386147 174 159 140 204 0.000000 0.000000 0.000000 1.000000 0.000000 0.000000 0.000000
2.060397 0.532806 -0.300197 0 0 0 204 0.000000 0.000000 0.000000 1.000000 0.000000 0.000000 0.000000
1.517333 0.117961 -0.507491 90 86 81 204 0.000000 0.000000 0.000000 1.000000 0.000000 0.000000 0.000000
1.828103 0.418103 -0.487838 217 194 163 204 0.000000 0.000000 0.000000 1.000000 0.000000 0.000000 0.000000
1.185858 -1.286208 -0.458996 201 181 156 204 0.000000 0.000000 0.000000 1.000000 0.000000 0.000000 0.000000
-0.560334 -0.249492 11.380422 191 192 194 204 0.000000 0.000000 0.000000 1.000000 0.000000 0.000000 0.000000
1.886897 0.268009 -0.520517 199 178 149 204 0.000000 0.000000 0.000000 1.000000 0.000000 0.000000 0.000000
1.704248 -0.082494 -0.573832 216 187 148 204 0.000000 0.000000 0.000000 1.000000 0.000000 0.000000 0.000000
1.933727 -3.809370 -0.142568 94 133 140 204 0.000000 0.000000 0.000000 1.000000 0.000000 0.000000 0.000000
2.125214 0.013260 -0.657047 219 189 155 204 0.000000 0.000000 0.000000 1.000000 0.000000 0.000000 0.000000
1.645235 0.545524 -0.367526 180 159 132 204 0.000000 0.000000 0.000000 1.000000 0.000000 0.000000 0.000000
1.917347 0.013528 -0.633589 73 75 57 204 0.000000 0.000000 0.000000 1.000000 0.000000 0.000000 0.000000
2.145652 0.458514 -0.478562 0 0 0 204 0.000000 0.000000 0.000000 1.000000 0.000000 0.000000 0.000000
0.982980 0.843595 -0.023010 196 176 151 204 0.000000 0.000000 0.000000 1.000000 0.000000 0.000000 0.000000
1.762872 -0.453637 -0.683099 170 139 108 204 0.000000 0.000000 0.000000 1.000000 0.000000 0.000000 0.000000
1.822652 0.386267 -0.508893 197 173 147 204 0.000000 0.000000 0.000000 1.000000 0.000000 0.000000 0.000000
0.483434 -0.591164 -0.008121 176 156 132 204 0.000000 0.000000 0.000000 1.000000 0.000000 0.000000 0.000000
1.350531 0.881960 -0.013926 137 120 95 204 0.000000 0.000000 0.000000 1.000000 0.000000 0.000000 0.000000
1.726200 0.273041 -0.506140 68 57 50 204 0.000000 0.000000 0.000000 1.000000 0.000000 0.000000 0.000000
2.034573 -0.206731 -0.651040 74 68 59 204 0.000000 0.000000 0.000000 1.000000 0.000000 0.000000 0.000000
1.050043 0.653528 -0.086855 250 230 193 204 0.000000 0.000000 0.000000 1.000000 0.000000 0.000000 0.000000
1.282090 -0.159671 -0.529561 165 132 105 204 0.000000 0.000000 0.000000 1.000000 0.000000 0.000000 0.000000
1.509096 0.244956 -0.479354 61 58 53 204 0.000000 0.000000 0.000000 1.000000 0.000000 0.000000 0.000000
1.487710 -3.520629 0.011547 38 54 53 204 0.000000 0.000000 0.000000 1.000000 0.000000 0.000000 0.000000
1.895659 -0.067053 -0.620566 233 204 171 204 0.000000 0.000000 0.000000 1.000000 0.000000 0.000000 0.000000
6.366059 -3.093166 -0.203560 146 139 129 204 0.000000 0.000000 0.000000 1.000000 0.000000 0.000000 0.000000
1.212616 -0.250961 -0.535125 0 0 0 204 0.000000 0.000000 0.000000 1.000000 0.000000 0.000000 0.000000
0.811212 -0.962259 0.046992 0 0 0 204 0.000000 0.000000 0.000000 1.000000 0.000000 0.000000 0.000000
2.522769 0.359817 -0.583165 180 153 123 204 0.000000 0.000000 0.000000 1.000000 0.000000 0.000000 0.000000
4.913199 -3.040588 -0.728786 34 34 26 204 0.000000 0.000000 0.000000 1.000000 0.000000 0.000000 0.000000
1.364912 2.858294 -8.520047 221 221 213 204 0.000000 0.000000 0.000000 1.000000 0.000000 0.000000 0.000000
1.705569 -0.100063 -0.595714 187 156 126 204 0.000000 0.000000 0.000000 1.000000 0.000000 0.000000 0.000000
1.695676 0.268079 -0.501561 80 71 67 204 0.000000 0.000000 0.000000 1.000000 0.000000 0.000000 0.000000
1.865509 0.430991 -0.512719 223 195 162 204 0.000000 0.000000 0.000000 1.000000 0.000000 0.000000 0.000000
1.482284 0.138892 -0.502157 83 73 64 204 0.000000 0.000000 0.000000 1.000000 0.000000 0.000000 0.000000
0.736041 3.060966 -8.883505 200 198 186 204 0.000000 0.000000 0.000000 1.000000 0.000000 0.000000 0.000000
1.170545 -2.762450 -2.020675 213 205 203 204 0.000000 0.000000 0.000000 1.000000 0.000000 0.000000 0.000000
2.036127 0.321521 -0.541476 96 92 81 204 0.000000 0.000000 0.000000 1.000000 0.000000 0.000000 0.000000
1.242281 -3.190114 -1.108873 0 0 0 204 0.000000 0.000000 0.000000 1.000000 0.000000 0.000000 0.000000
2.946832 -1.085646 -0.508856 0 0 0 204 0.000000 0.000000 0.000000 1.000000 0.000000 0.000000 0.000000
0.920733 0.734882 -0.044053 222 196 161 204 0.000000 0.000000 0.000000 1.000000 0.000000 0.000000 0.000000
-5.761203 -0.229651 -3.883071 235 237 228 204 0.000000 0.000000 0.000000 1.000000 0.000000 0.000000 0.000000
1.603721 0.270241 -0.504268 81 73 59 204 0.000000 0.000000 0.000000 1.000000 0.000000 0.000000 0.000000
0.481758 -0.360394 0.195557 200 186 159 204 0.000000 0.000000 0.000000 1.000000 0.000000 0.000000 0.000000
1.947359 -0.518460 -0.644181 43 39 38 204 0.000000 0.000000 0.000000 1.000000 0.000000 0.000000 0.000000
8.993778 4.104644 -6.260045 52 47 41 204 0.000000 0.000000 0.000000 1.000000 0.000000 0.000000 0.000000
-0.439143 -2.735760 -1.893767 127 123 114 204 0.000000 0.000000 0.000000 1.000000 0.000000 0.000000 0.000000
0.415409 2.648292 -8.625717 207 188 174 204 0.000000 0.000000 0.000000 1.000000 0.000000 0.000000 0.000000
0.996039 0.663000 -0.082489 236 213 179 204 0.000000 0.000000 0.000000 1.000000 0.000000 0.000000 0.000000
3.169023 0.803237 -0.096559 241 216 185 204 0.000000 0.000000 0.000000 1.000000 0.000000 0.000000 0.000000
8.239142 1.809562 0.608261 37 32 28 204 0.000000 0.000000 0.000000 1.000000 0.000000 0.000000 0.000000
2.903249 -0.081952 -0.726517 206 185 158 204 0.000000 0.000000 0.000000 1.000000 0.000000 0.000000 0.000000
0.059419 -2.632942 -2.245092 0 0 0 204 0.000000 0.000000 0.000000 1.000000 0.000000 0.000000 0.000000
1.410453 0.959963 0.567789 0 0 0 204 0.000000 0.000000 0.000000 1.000000 0.000000 0.000000 0.000000
3.246295 0.252279 -0.681119 0 0 0 204 0.000000 0.000000 0.000000 1.000000 0.000000 0.000000 0.000000
0.934119 1.921467 -9.176636 204 201 194 204 0.000000 0.000000 0.000000 1.000000 0.000000 0.000000 0.000000
1.699511 -0.200471 -0.633960 91 74 64 204 0.000000 0.000000 0.000000 1.000000 0.000000 0.000000 0.000000
8.602976 1.358395 -5.179560 64 55 40 204 0.000000 0.000000 0.000000 1.000000 0.000000 0.000000 0.000000
9.234159 1.789208 -7.570414 44 34 25 204 0.000000 0.000000 0.000000 1.000000 0.000000 0.000000 0.000000
1.473063 -2.738924 -1.893008 153 165 151 204 0.000000 0.000000 0.000000 1.000000 0.000000 0.000000 0.000000
1.941449 0.441099 -0.489607 207 185 162 204 0.000000 0.000000 0.000000 1.000000 0.000000 0.000000 0.000000
1.420397 -0.234521 -0.604065 86 76 59 204 0.000000 0.000000 0.000000 1.000000 0.000000 0.000000 0.000000
2.560122 -0.124386 -0.702229 209 186 152 204 0.000000 0.000000 0.000000 1.000000 0.000000 0.000000 0.000000
0.692873 -1.093425 -0.231630 225 209 184 204 0.000000 0.000000 0.000000 1.000000 0.000000 0.000000 0.000000
1.995227 0.356647 -0.533274 65 56 47 204 0.000000 0.000000 0.000000 1.000000 0.000000 0.000000 0.000000
8.105433 -1.027936 7.629086 25 7 5 204 0.000000 0.000000 0.000000 1.000000 0.000000 0.000000 0.000000
-0.224276 -2.763575 -1.941001 140 133 120 204 0.000000 0.000000 0.000000 1.000000 0.000000 0.000000 0.000000
-0.690874 -2.872103 -1.632419 0 0 0 204 0.000000 0.000000 0.000000 1.000000 0.000000 0.000000 0.000000
1.135274 -0.460529 -0.557905 197 163 128 204 0.000000 0.000000 0.000000 1.000000 0.000000 0.000000 0.000000
0.592750 2.173564 -9.109015 203 196 186 204 0.000000 0.000000 0.000000 1.000000 0.000000 0.000000 0.000000
8.968694 3.856652 -6.208383 31 22 15 204 0.000000 0.000000 0.000000 1.000000 0.000000 0.000000 0.000000
2.861429 0.034411 -0.730348 194 167 140 204 0.000000 0.000000 0.000000 1.000000 0.000000 0.000000 0.000000
-0.723656 -2.766259 -1.855323 232 226 228 204 0.000000 0.000000 0.000000 1.000000 0.000000 0.000000 0.000000
0.846620 -2.646867 -2.147265 43 41 42 204 0.000000 0.000000 0.000000 1.000000 0.000000 0.000000 0.000000
1.898413 0.470648 -0.396925 60 59 54 204 0.000000 0.000000 0.000000 1.000000 0.000000 0.000000 0.000000
1.417656 -1.233279 -0.444510 158 134 106 204 0.000000 0.000000 0.000000 1.000000 0.000000 0.000000 0.000000
8.527344 1.332193 -4.817811 73 61 45 204 0.000000 0.000000 0.000000 1.000000 0.000000 0.000000 0.000000
1.083548 -2.915448 -1.397333 0 0 0 204 0.000000 0.000000 0.000000 1.000000 0.000000 0.000000 0.000000
5.962982 -3.013902 -0.605875 114 110 99 204 0.000000 0.000000 0.000000 1.000000 0.000000 0.000000 0.000000
2.025148 0.073717 -0.608730 132 96 72 204 0.000000 0.000000 0.000000 1.000000 0.000000 0.000000 0.000000
1.038301 -0.297909 -0.483322 251 228 187 204 0.000000 0.000000 0.000000 1.000000 0.000000 0.000000 0.000000
2.139258 0.487222 -0.436891 84 80 67 204 0.000000 0.000000 0.000000 1.000000 0.000000 0.000000 0.000000
-0.617334 -2.779792 -1.803884 240 228 232 204 0.000000 0.000000 0.000000 1.000000 0.000000 0.000000 0.000000
-0.381685 -0.703181 11.312936 3 12 7 204 0.000000 0.000000 0.000000 1.000000 0.000000 0.000000 0.000000
1.730543 -1.005270 -0.449898 170 145 115 204 0.000000 0.000000 0.000000 1.000000 0.000000 0.000000 0.000000
0.764106 0.842486 0.333192 0 0 0 204 0.000000 0.000000 0.000000 1.000000 0.000000 0.000000 0.000000
1.771375 -0.391971 -0.660006 0 0 0 204 0.000000 0.000000 0.000000 1.000000 0.000000 0.000000 0.000000
0.586055 0.477147 0.135176 209 191 158 204 0.000000 0.000000 0.000000 1.000000 0.000000 0.000000 0.000000
3.444265 0.813874 -0.181567 235 211 176 204 0.000000 0.000000 0.000000 1.000000 0.000000 0.000000 0.000000
0.896350 0.046383 0.507787 138 123 102 204 0.000000 0.000000 0.000000 1.000000 0.000000 0.000000 0.000000
1.909069 -0.003002 -0.611969 213 187 155 204 0.000000 0.000000 0.000000 1.000000 0.000000 0.000000 0.000000
1.794282 -0.382016 -0.659311 186 161 131 204 0.000000 0.000000 0.000000 1.000000 0.000000 0.000000 0.000000
1.712037 0.231278 -0.510603 221 182 153 204 0.000000 0.000000 0.000000 1.000000 0.000000 0.000000 0.000000
0.875403 0.955523 0.379665 0 0 0 204 0.000000 0.000000 0.000000 1.000000 0.000000 0.000000 0.000000
0.538969 -0.730065 -0.066136 186 166 135 204 0.000000 0.000000 0.000000 1.000000 0.000000 0.000000 0.000000
0.580060 -0.669051 0.060839 155 146 127 204 0.000000 0.000000 0.000000 1.000000 0.000000 0.000000 0.000000
3.073134 0.582602 -0.479499 234 211 177 204 0.000000 0.000000 0.000000 1.000000 0.000000 0.000000 0.000000
0.794452 0.750659 0.512020 228 213 180 204 0.000000 0.000000 0.000000 1.000000 0.000000 0.000000 0.000000
9.024242 -0.702681 -6.464363 65 56 47 204 0.000000 0.000000 0.000000 1.000000 0.000000 0.000000 0.000000
1.090990 0.174076 -0.373457 196 175 144 204 0.000000 0.000000 0.000000 1.000000 0.000000 0.000000 0.000000
1.489612 -0.328294 -0.645123 178 141 101 204 0.000000 0.000000 0.000000 1.000000 0.000000 0.000000 0.000000
0.610676 -0.838497 -0.149511 164 147 111 204 0.000000 0.000000 0.000000 1.000000 0.000000 0.000000 0.000000
8.850710 1.672262 -6.628013 48 37 31 204 0.000000 0.000000 0.000000 1.000000 0.000000 0.000000 0.000000
3.339817 0.878117 -0.015956 154 127 98 204 0.000000 0.000000 0.000000 1.000000 0.000000 0.000000 0.000000
3.643892 2.532304 -8.754334 158 103 46 204 0.000000 0.000000 0.000000 1.000000 0.000000 0.000000 0.000000
2.377370 0.451795 -0.531085 169 153 125 204 0.000000 0.000000 0.000000 1.000000 0.000000 0.000000 0.000000
1.863005 0.070862 -0.578637 175 146 106 204 0.000000 0.000000 0.000000 1.000000 0.000000 0.000000 0.000000
0.413827 -0.527406 11.470467 0 8 5 204 0.000000 0.000000 0.000000 1.000000 0.000000 0.000000 0.000000
0.936186 -2.887013 -1.549853 203 181 168 204 0.000000 0.000000 0.000000 1.000000 0.000000 0.000000 0.000000
0.489290 -0.057715 0.215866 0 0 0 204 0.000000 0.000000 0.000000 1.000000 0.000000 0.000000 0.000000
2.156922 0.344946 -0.542043 161 130 99 204 0.000000 0.000000 0.000000 1.000000 0.000000 0.000000 0.000000
2.152349 -0.221657 -0.684037 76 63 54 204 0.000000 0.000000 0.000000 1.000000 0.000000 0.000000 0.000000
2.690434 0.427032 -0.572002 199 177 154 204 0.000000 0.000000 0.000000 1.000000 0.000000 0.000000 0.000000
1.822773 0.222386 -0.522462 61 51 40 204 0.000000 0.000000 0.000000 1.000000 0.000000 0.000000 0.000000
0.866216 0.718452 0.482226 0 0 0 204 0.000000 0.000000 0.000000 1.000000 0.000000 0.000000 0.000000
1.730461 0.972940 0.106898 0 0 0 204 0.000000 0.000000 0.000000 1.000000 0.000000 0.000000 0.000000
1.145247 0.995705 0.079341 226 201 170 204 0.000000 0.000000 0.000000 1.000000 0.000000 0.000000 0.000000
-0.152253 -2.716267 -1.985032 240 239 237 204 0.000000 0.000000 0.000000 1.000000 0.000000 0.000000 0.000000
1.925107 0.493630 -0.376319 78 72 60 204 0.000000 0.000000 0.000000 1.000000 0.000000 0.000000 0.000000
0.915129 -1.169045 -0.109950 179 158 137 204 0.000000 0.000000 0.000000 1.000000 0.000000 0.000000 0.000000
1.536648 -0.103906 -0.556020 149 119 89 204 0.000000 0.000000 0.000000 1.000000 0.000000 0.000000 0.000000
1.972450 0.557497 -0.291190 135 112 86 204 0.000000 0.000000 0.000000 1.000000 0.000000 0.000000 0.000000
0.458806 0.203551 0.188772 151 131 106 204 0.000000 0.000000 0.000000 1.000000 0.000000 0.000000 0.000000
1.254680 0.983041 0.513495 129 117 95 204 0.000000 0.000000 0.000000 1.000000 0.000000 0.000000 0.000000
1.955197 0.497196 -0.358009 21 20 11 204 0.000000 0.000000 0.000000 1.000000 0.000000 0.000000 0.000000
4.606795 -2.945978 -1.276670 29 29 21 204 0.000000 0.000000 0.000000 1.000000 0.000000 0.000000 0.000000
0.736764 -1.010701 -0.023230 203 183 156 204 0.000000 0.000000 0.000000 1.000000 0.000000 0.000000 0.000000
0.714957 -1.084798 -0.261329 255 254 232 204 0.000000 0.000000 0.000000 1.000000 0.000000 0.000000 0.000000
1.850049 0.019897 -0.602158 221 189 152 204 0.000000 0.000000 0.000000 1.000000 0.000000 0.000000 0.000000
1.984909 0.472030 -0.407522 203 180 139 204 0.000000 0.000000 0.000000 1.000000 0.000000 0.000000 0.000000
0.692858 -0.438827 0.241707 189 171 148 204 0.000000 0.000000 0.000000 1.000000 0.000000 0.000000 0.000000
1.826648 0.071345 -0.574767 225 197 161 204 0.000000 0.000000 0.000000 1.000000 0.000000 0.000000 0.000000
1.418087 -0.128093 -0.557717 79 75 66 204 0.000000 0.000000 0.000000 1.000000 0.000000 0.000000 0.000000
1.938858 -2.841247 -1.698627 82 99 93 204 0.000000 0.000000 0.000000 1.000000 0.000000 0.000000 0.000000
9.078515 1.274558 -7.510368 79 71 58 204 0.000000 0.000000 0.000000 1.000000 0.000000 0.000000 0.000000
1.243852 -0.344614 -0.562340 86 75 70 204 0.000000 0.000000 0.000000 1.000000 0.000000 0.000000 0.000000
0.499311 -0.057615 0.235709 59 51 42 204 0.000000 0.000000 0.000000 1.000000 0.000000 0.000000 0.000000
2.037884 -4.152476 -0.246111 110 133 127 204 0.000000 0.000000 0.000000 1.000000 0.000000 0.000000 0.000000
1.197945 -0.110312 -0.500444 164 134 106 204 0.000000 0.000000 0.000000 1.000000 0.000000 0.000000 0.000000
1.067111 -0.453540 -0.520071 244 232 208 204 0.000000 0.000000 0.000000 1.000000 0.000000 0.000000 0.000000
-0.863908 -0.079895 0.077965 125 110 92 204 0.000000 0.000000 0.000000 1.000000 0.000000 0.000000 0.000000
1.513061 -1.298535 -0.329982 168 150 126 204 0.000000 0.000000 0.000000 1.000000 0.000000 0.000000 0.000000
-0.680200 -3.849577 -0.340983 232 229 225 204 0.000000 0.000000 0.000000 1.000000 0.000000 0.000000 0.000000
1.818681 -0.469540 -0.675575 181 153 121 204 0.000000 0.000000 0.000000 1.000000 0.000000 0.000000 0.000000
1.877536 0.436776 -0.448094 201 179 143 204 0.000000 0.000000 0.000000 1.000000 0.000000 0.000000 0.000000
0.484148 -0.634929 -0.048588 255 244 210 204 0.000000 0.000000 0.000000 1.000000 0.000000 0.000000 0.000000
-0.490194 -2.554968 -2.629044 240 232 230 204 0.000000 0.000000 0.000000 1.000000 0.000000 0.000000 0.000000
1.288764 0.479071 -0.338728 0 0 0 204 0.000000 0.000000 0.000000 1.000000 0.000000 0.000000 0.000000
1.837811 0.163196 -0.543802 89 72 62 204 0.000000 0.000000 0.000000 1.000000 0.000000 0.000000 0.000000
8.437745 0.784027 -5.483107 70 60 48 204 0.000000 0.000000 0.000000 1.000000 0.000000 0.000000 0.000000
1.699411 -0.231447 -0.649539 75 70 65 204 0.000000 0.000000 0.000000 1.000000 0.000000 0.000000 0.000000
1.913942 -0.152952 -0.619109 233 204 164 204 0.000000 0.000000 0.000000 1.000000 0.000000 0.000000 0.000000
1.336736 1.123335 0.438736 182 170 147 204 0.000000 0.000000 0.000000 1.000000 0.000000 0.000000 0.000000
1.854335 0.242469 -0.522658 141 110 86 204 0.000000 0.000000 0.000000 1.000000 0.000000 0.000000 0.000000
2.155940 0.345713 -0.545453 219 191 156 204 0.000000 0.000000 0.000000 1.000000 0.000000 0.000000 0.000000
3.147748 0.370199 -0.609856 194 171 140 204 0.000000 0.000000 0.000000 1.000000 0.000000 0.000000 0.000000
0.822869 -0.848493 0.141138 124 109 90 204 0.000000 0.000000 0.000000 1.000000 0.000000 0.000000 0.000000
1.057151 -1.240796 -0.570251 0 0 0 204 0.000000 0.000000 0.000000 1.000000 0.000000 0.000000 0.000000
2.295202 0.306248 -0.566727 213 193 168 204 0.000000 0.000000 0.000000 1.000000 0.000000 0.000000 0.000000
2.587370 0.410736 -0.583791 135 117 97 204 0.000000 0.000000 0.000000 1.000000 0.000000 0.000000 0.000000
1.952756 0.037067 -0.617306 216 193 161 204 0.000000 0.000000 0.000000 1.000000 0.000000 0.000000 0.000000
1.777712 -0.255313 -0.667483 200 177 145 204 0.000000 0.000000 0.000000 1.000000 0.000000 0.000000 0.000000
-0.854302 -0.370115 -0.178605 85 78 70 204 0.000000 0.000000 0.000000 1.000000 0.000000 0.000000 0.000000
2.137334 0.265107 -0.580627 108 101 91 204 0.000000 0.000000 0.000000 1.000000 0.000000 0.000000 0.000000
1.926510 0.414988 -0.495467 201 178 144 204 0.000000 0.000000 0.000000 1.000000 0.000000 0.000000 0.000000
1.723089 0.300688 -0.512491 75 66 57 204 0.000000 0.000000 0.000000 1.000000 0.000000 0.000000 0.000000
0.509205 0.356560 0.205559 0 0 0 204 0.000000 0.000000 0.000000 1.000000 0.000000 0.000000 0.000000
0.628535 0.638330 0.242976 235 218 190 204 0.000000 0.000000 0.000000 1.000000 0.000000 0.000000 0.000000
2.089743 0.422530 -0.525907 67 52 42 204 0.000000 0.000000 0.000000 1.000000 0.000000 0.000000 0.000000
1.505680 2.339292 -8.853734 195 192 185 204 0.000000 0.000000 0.000000 1.000000 0.000000 0.000000 0.000000
1.222985 1.095429 0.424281 143 126 106 204 0.000000 0.000000 0.000000 1.000000 0.000000 0.000000 0.000000
2.010464 -0.484421 -0.644084 76 58 46 204 0.000000 0.000000 0.000000 1.000000 0.000000 0.000000 0.000000
1.944809 0.556904 -0.300714 160 139 118 204 0.000000 0.000000 0.000000 1.000000 0.000000 0.000000 0.000000
1.826527 0.393003 -0.518372 192 162 126 204 0.000000 0.000000 0.000000 1.000000 0.000000 0.000000 0.000000
-0.479826 -2.710590 -2.012797 151 155 180 204 0.000000 0.000000 0.000000 1.000000 0.000000 0.000000 0.000000
3.067505 0.563102 -0.539488 191 172 152 204 0.000000 0.000000 0.000000 1.000000 0.000000 0.000000 0.000000
1.816177 0.156262 -0.529142 169 147 126 204 0.000000 0.000000 0.000000 1.000000 0.000000 0.000000 0.000000
7.831384 0.251308 -9.778443 85 73 57 204 0.000000 0.000000 0.000000 1.000000 0.000000 0.000000 0.000000
3.200967 -0.081285 -0.689382 152 131 102 204 0.000000 0.000000 0.000000 1.000000 0.000000 0.000000 0.000000
1.923097 -2.907185 -1.280343 0 0 0 204 0.000000 0.000000 0.000000 1.000000 0.000000 0.000000 0.000000
1.122432 -0.276868 -0.509806 60 56 51 204 0.000000 0.000000 0.000000 1.000000 0.000000 0.000000 0.000000
1.954020 0.368799 -0.527997 208 183 152 204 0.000000 0.000000 0.000000 1.000000 0.000000 0.000000 0.000000
2.063890 -0.169179 -0.661081 180 148 120 204 0.000000 0.000000 0.000000 1.000000 0.000000 0.000000 0.000000
2.630371 0.127090 -0.669304 174 151 120 204 0.000000 0.000000 0.000000 1.000000 0.000000 0.000000 0.000000
1.286829 -0.188183 -0.533562 0 0 0 204 0.000000 0.000000 0.000000 1.000000 0.000000 0.000000 0.000000
0.451995 0.277101 0.173352 232 211 180 204 0.000000 0.000000 0.000000 1.000000 0.000000 0.000000 0.000000
5.376188 -3.333298 -0.785180 144 136 133 204 0.000000 0.000000 0.000000 1.000000 0.000000 0.000000 0.000000
2.011434 -0.266435 -0.687548 147 116 87 204 0.000000 0.000000 0.000000 1.000000 0.000000 0.000000 0.000000
5.354036 -2.975581 -0.810126 21 21 13 204 0.000000 0.000000 0.000000 1.000000 0.000000 0.000000 0.000000
-0.639115 -2.635850 -2.496726 139 143 152 204 0.000000 0.000000 0.000000 1.000000 0.000000 0.000000 0.000000
1.778818 -0.336828 -0.660683 60 40 32 204 0.000000 0.000000 0.000000 1.000000 0.000000 0.000000 0.000000
0.872469 0.740227 0.525134 137 120 96 204 0.000000 0.000000 0.000000 1.000000 0.000000 0.000000 0.000000
2.173520 -0.212338 -0.677206 83 79 68 204 0.000000 0.000000 0.000000 1.000000 0.000000 0.000000 0.000000
-0.649721 -3.882755 -0.361039 254 252 255 204 0.000000 0.000000 0.000000 1.000000 0.000000 0.000000 0.000000
1.620822 -0.267015 -0.658620 152 119 84 204 0.000000 0.000000 0.000000 1.000000 0.000000 0.000000 0.000000
0.610345 -0.675788 0.098754 226 205 174 204 0.000000 0.000000 0.000000 1.000000 0.000000 0.000000 0.000000
1.768415 -1.236715 -0.461810 223 188 156 204 0.000000 0.000000 0.000000 1.000000 0.000000 0.000000 0.000000
0.756447 -1.116274 -0.282789 197 180 152 204 0.000000 0.000000 0.000000 1.000000 0.000000 0.000000 0.000000
3.082286 -0.569858 -0.646704 71 60 48 204 0.000000 0.000000 0.000000 1.000000 0.000000 0.000000 0.000000
0.999556 -1.056819 -0.524070 213 192 165 204 0.000000 0.000000 0.000000 1.000000 0.000000 0.000000 0.000000
1.903757 -1.021320 -0.467185 154 133 102 204 0.000000 0.000000 0.000000 1.000000 0.000000 0.000000 0.000000
0.549709 -0.307133 0.194170 178 161 136 204 0.000000 0.000000 0.000000 1.000000 0.000000 0.000000 0.000000
1.450141 0.408636 -0.420052 247 225 188 204 0.000000 0.000000 0.000000 1.000000 0.000000 0.000000 0.000000
-1.498851 -2.575583 -2.576022 231 229 234 204 0.000000 0.000000 0.000000 1.000000 0.000000 0.000000 0.000000
1.617887 1.038823 0.090244 200 177 146 204 0.000000 0.000000 0.000000 1.000000 0.000000 0.000000 0.000000
2.149499 -0.418580 -0.679002 218 199 166 204 0.000000 0.000000 0.000000 1.000000 0.000000 0.000000 0.000000
0.448834 -0.206572 0.146415 0 0 0 204 0.000000 0.000000 0.000000 1.000000 0.000000 0.000000 0.000000
3.912744 -3.069798 -0.977324 171 168 161 204 0.000000 0.000000 0.000000 1.000000 0.000000 0.000000 0.000000
1.123909 1.185170 0.344563 0 0 0 204 0.000000 0.000000 0.000000 1.000000 0.000000 0.000000 0.000000
1.072445 -0.456607 -0.513609 242 215 196 204 0.000000 0.000000 0.000000 1.000000 0.000000 0.000000 0.000000
0.773084 -1.067766 -0.108065 200 180 157 204 0.000000 0.000000 0.000000 1.000000 0.000000 0.000000 0.000000
2.623922 -0.074146 -0.704594 185 164 134 204 0.000000 0.000000 0.000000 1.000000 0.000000 0.000000 0.000000
1.151930 -0.213138 -0.494664 186 142 103 204 0.000000 0.000000 0.000000 1.000000 0.000000 0.000000 0.000000
1.802592 0.264437 -0.506019 95 92 77 204 0.000000 0.000000 0.000000 1.000000 0.000000 0.000000 0.000000
0.471535 -0.589722 -0.043850 193 176 146 204 0.000000 0.000000 0.000000 1.000000 0.000000 0.000000 0.000000
0.645600 0.709748 0.216920 189 163 138 204 0.000000 0.000000 0.000000 1.000000 0.000000 0.000000 0.000000
2.033995 0.532133 -0.306078 57 58 40 204 0.000000 0.000000 0.000000 1.000000 0.000000 0.000000 0.000000
1.753610 0.469334 -0.389436 127 101 79 204 0.000000 0.000000 0.000000 1.000000 0.000000 0.000000 0.000000
8.528068 2.530854 -5.492956 70 61 46 204 0.000000 0.000000 0.000000 1.000000 0.000000 0.000000 0.000000
1.247571 -0.095093 -0.503859 144 113 85 204 0.000000 0.000000 0.000000 1.000000 0.000000 0.000000 0.000000
3.403622 0.718772 -0.252580 169 143 118 204 0.000000 0.000000 0.000000 1.000000 0.000000 0.000000 0.000000
0.571396 -2.713948 -2.146205 228 192 69 204 0.000000 0.000000 0.000000 1.000000 0.000000 0.000000 0.000000
1.399928 -1.069155 -0.491107 177 148 119 204 0.000000 0.000000 0.000000 1.000000 0.000000 0.000000 0.000000
-0.503511 -2.687951 -2.083342 70 65 69 204 0.000000 0.000000 0.000000 1.000000 0.000000 0.000000 0.000000
0.607844 -0.635181 0.134094 207 183 159 204 0.000000 0.000000 0.000000 1.000000 0.000000 0.000000 0.000000
2.124253 -0.054761 -0.656563 83 75 61 204 0.000000 0.000000 0.000000 1.000000 0.000000 0.000000 0.000000
1.990798 -0.147652 -0.633993 57 48 41 204 0.000000 0.000000 0.000000 1.000000 0.000000 0.000000 0.000000
1.980478 0.447396 -0.463912 78 68 60 204 0.000000 0.000000 0.000000 1.000000 0.000000 0.000000 0.000000
2.111367 0.534036 -0.314568 165 139 114 204 0.000000 0.000000 0.000000 1.000000 0.000000 0.000000 0.000000
5.627966 -2.811386 -1.305870 146 142 133 204 0.000000 0.000000 0.000000 1.000000 0.000000 0.000000 0.000000
1.905128 0.458101 -0.446740 86 68 56 204 0.000000 0.000000 0.000000 1.000000 0.000000 0.000000 0.000000
1.279420 -0.419738 -0.602969 218 175 128 204 0.000000 0.000000 0.000000 1.000000 0.000000 0.000000 0.000000
1.904618 -4.157338 -0.258024 86 111 99 204 0.000000 0.000000 0.000000 1.000000 0.000000 0.000000 0.000000
0.677432 -0.961880 -0.103089 0 0 0 204 0.000000 0.000000 0.000000 1.000000 0.000000 0.000000 0.000000
1.518466 0.062897 -0.521319 187 150 131 204 0.000000 0.000000 0.000000 1.000000 0.000000 0.000000 0.000000
8.257363 1.814682 0.316367 33 28 24 204 0.000000 0.000000 0.000000 1.000000 0.000000 0.000000 0.000000
-0.967281 -2.706281 -2.177080 129 188 225 204 0.000000 0.000000 0.000000 1.000000 0.000000 0.000000 0.000000
1.823603 -1.118065 -0.459975 0 0 0 204 0.000000 0.000000 0.000000 1.000000 0.000000 0.000000 0.000000
1.231583 -0.278047 -0.551600 76 71 64 204 0.000000 0.000000 0.000000 1.000000 0.000000 0.000000 0.000000
0.834837 0.760611 0.538234 213 198 165 204 0.000000 0.000000 0.000000 1.000000 0.000000 0.000000 0.000000
1.178469 -0.059053 -0.451070 0 0 0 204 0.000000 0.000000 0.000000 1.000000 0.000000 0.000000 0.000000
2.419448 -3.852293 -1.032108 73 102 95 204 0.000000 0.000000 0.000000 1.000000 0.000000 0.000000 0.000000
0.682958 0.747050 0.255398 255 241 210 204 0.000000 0.000000 0.000000 1.000000 0.000000 0.000000 0.000000
3.491278 0.807623 -0.177302 168 147 119 204 0.000000 0.000000 0.000000 1.000000 0.000000 0.000000 0.000000
1.899110 0.363742 -0.527716 223 199 165 204 0.000000 0.000000 0.000000 1.000000 0.000000 0.000000 0.000000
0.946053 0.702229 -0.071998 246 227 194 204 0.000000 0.000000 0.000000 1.000000 0.000000 0.000000 0.000000
1.769888 -0.194246 -0.629821 192 178 155 204 0.000000 0.000000 0.000000 1.000000 0.000000 0.000000 0.000000
2.042381 0.435365 -0.498955 164 129 102 204 0.000000 0.000000 0.000000 1.000000 0.000000 0.000000 0.000000
1.792359 0.313380 -0.515024 73 61 46 204 0.000000 0.000000 0.000000 1.000000 0.000000 0.000000 0.000000
2.392405 0.447109 -0.545229 0 0 0 204 0.000000 0.000000 0.000000 1.000000 0.000000 0.000000 0.000000
0.453126 -0.384959 0.146507 125 111 85 204 0.000000 0.000000 0.000000 1.000000 0.000000 0.000000 0.000000
1.564376 -0.481277 -0.676956 161 116 83 204 0.000000 0.000000 0.000000 1.000000 0.000000 0.000000 0.000000
0.852822 -0.161762 -0.395007 136 111 89 204 0.000000 0.000000 0.000000 1.000000 0.000000 0.000000 0.000000
1.617511 0.271104 -0.479839 72 74 71 204 0.000000 0.000000 0.000000 1.000000 0.000000 0.000000 0.000000
1.822699 -0.249355 -0.664636 78 72 63 204 0.000000 0.000000 0.000000 1.000000 0.000000 0.000000 0.000000
1.834280 0.083250 -0.571119 83 77 73 204 0.000000 0.000000 0.000000 1.000000 0.000000 0.000000 0.000000
2.219032 -0.473318 -0.594972 0 0 0 204 0.000000 0.000000 0.000000 1.000000 0.000000 0.000000 0.000000
2.034019 -0.109051 -0.662742 139 130 106 204 0.000000 0.000000 0.000000 1.000000 0.000000 0.000000 0.000000
1.659161 0.466459 -0.414758 168 138 112 204 0.000000 0.000000 0.000000 1.000000 0.000000 0.000000 0.000000
0.912018 0.763180 0.595001 215 198 170 204 0.000000 0.000000 0.000000 1.000000 0.000000 0.000000 0.000000
2.046099 -0.019279 -0.644846 241 209 174 204 0.000000 0.000000 0.000000 1.000000 0.000000 0.000000 0.000000
0.595432 -0.618809 0.128858 204 189 160 204 0.000000 0.000000 0.000000 1.000000 0.000000 0.000000 0.000000
0.587116 0.555646 0.195502 223 208 179 204 0.000000 0.000000 0.000000 1.000000 0.000000 0.000000 0.000000
0.910091 0.938616 0.401923 184 163 141 204 0.000000 0.000000 0.000000 1.000000 0.000000 0.000000 0.000000
-0.159976 -2.698572 -2.050254 198 190 163 204 0.000000 0.000000 0.000000 1.000000 0.000000 0.000000 0.000000
2.097096 0.547932 -0.274323 0 0 0 204 0.000000 0.000000 0.000000 1.000000 0.000000 0.000000 0.000000
-0.190709 -3.830497 -0.409789 55 50 54 204 0.000000 0.000000 0.000000 1.000000 0.000000 0.000000 0.000000
1.141047 -0.481337 -0.536084 0 0 0 204 0.000000 0.000000 0.000000 1.000000 0.000000 0.000000 0.000000
1.930895 -0.090055 -0.620115 229 196 152 204 0.000000 0.000000 0.000000 1.000000 0.000000 0.000000 0.000000
0.469293 -0.168882 0.186171 183 163 137 204 0.000000 0.000000 0.000000 1.000000 0.000000 0.000000 0.000000
2.068414 0.433455 -0.529329 88 78 69 204 0.000000 0.000000 0.000000 1.000000 0.000000 0.000000 0.000000
2.689523 0.283626 -0.569275 173 152 131 204 0.000000 0.000000 0.000000 1.000000 0.000000 0.000000 0.000000
-0.783908 0.065019 0.186837 58 61 68 204 0.000000 0.000000 0.000000 1.000000 0.000000 0.000000 0.000000
2.013819 0.570443 -0.263196 154 129 107 204 0.000000 0.000000 0.000000 1.000000 0.000000 0.000000 0.000000
1.980819 0.490584 -0.354433 144 107 78 204 0.000000 0.000000 0.000000 1.000000 0.000000 0.000000 0.000000
2.278216 0.524199 -0.380087 192 169 137 204 0.000000 0.000000 0.000000 1.000000 0.000000 0.000000 0.000000
2.428806 0.523692 -0.384473 144 124 96 204 0.000000 0.000000 0.000000 1.000000 0.000000 0.000000 0.000000
1.664913 0.267142 -0.499092 185 154 130 204 0.000000 0.000000 0.000000 1.000000 0.000000 0.000000 0.000000
2.045669 -0.302478 -0.689443 142 111 83 204 0.000000 0.000000 0.000000 1.000000 0.000000 0.000000 0.000000
2.084661 0.491405 -0.425732 76 63 54 204 0.000000 0.000000 0.000000 1.000000 0.000000 0.000000 0.000000
0.786884 -1.168038 -0.289280 249 246 226 204 0.000000 0.000000 0.000000 1.000000 0.000000 0.000000 0.000000
0.940222 0.969273 0.059316 249 229 192 204 0.000000 0.000000 0.000000 1.000000 0.000000 0.000000 0.000000
0.869724 -0.904233 0.134621 116 99 79 204 0.000000 0.000000 0.000000 1.000000 0.000000 0.000000 0.000000
0.626884 -0.882414 -0.130734 233 213 188 204 0.000000 0.000000 0.000000 1.000000 0.000000 0.000000 0.000000
2.122385 0.438577 -0.505533 167 137 109 204 0.000000 0.000000 0.000000 1.000000 0.000000 0.000000 0.000000
2.315731 0.121864 -0.637011 224 198 163 204 0.000000 0.000000 0.000000 1.000000 0.000000 0.000000 0.000000
0.890579 0.629238 0.583640 168 152 125 204 0.000000 0.000000 0.000000 1.000000 0.000000 0.000000 0.000000
2.087297 0.460537 -0.471929 178 148 112 204 0.000000 0.000000 0.000000 1.000000 0.000000 0.000000 0.000000
1.707793 1.017361 0.091791 182 153 121 204 0.000000 0.000000 0.000000 1.000000 0.000000 0.000000 0.000000
0.775924 0.625968 0.421494 204 187 161 204 0.000000 0.000000 0.000000 1.000000 0.000000 0.000000 0.000000
1.324453 -0.296773 -0.585621 220 193 163 204 0.000000 0.000000 0.000000 1.000000 0.000000 0.000000 0.000000
1.933277 0.008114 -0.620799 66 66 46 204 0.000000 0.000000 0.000000 1.000000 0.000000 0.000000 0.000000
1.866747 -0.484480 -0.671256 145 125 108 204 0.000000 0.000000 0.000000 1.000000 0.000000 0.000000 0.000000
1.243060 -0.222303 -0.542503 75 71 65 204 0.000000 0.000000 0.000000 1.000000 0.000000 0.000000 0.000000
1.845476 0.603872 -0.244376 183 166 146 204 0.000000 0.000000 0.000000 1.000000 0.000000 0.000000 0.000000
1.711342 0.173992 -0.515923 82 72 65 204 0.000000 0.000000 0.000000 1.000000 0.000000 0.000000 0.000000
1.419445 -1.071734 -0.485390 141 114 85 204 0.000000 0.000000 0.000000 1.000000 0.000000 0.000000 0.000000
1.712351 -0.079223 -0.585589 190 163 124 204 0.000000 0.000000 0.000000 1.000000 0.000000 0.000000 0.000000
0.579158 -0.815730 -0.144570 255 252 227 204 0.000000 0.000000 0.000000 1.000000 0.000000 0.000000 0.000000
0.771078 -0.746152 0.197930 120 108 86 204 0.000000 0.000000 0.000000 1.000000 0.000000 0.000000 0.000000
1.720853 0.466050 -0.412497 166 146 123 204 0.000000 0.000000 0.000000 1.000000 0.000000 0.000000 0.000000
2.089432 0.270282 -0.540021 102 97 86 204 0.000000 0.000000 0.000000 1.000000 0.000000 0.000000 0.000000
1.104713 -0.252563 -0.494623 0 0 0 204 0.000000 0.000000 0.000000 1.000000 0.000000 0.000000 0.000000
8.038245 0.512941 7.339488 59 58 54 204 0.000000 0.000000 0.000000 1.000000 0.000000 0.000000 0.000000
0.612173 -0.783435 -0.005957 242 223 193 204 0.000000 0.000000 0.000000 1.000000 0.000000 0.000000 0.000000
1.403412 -0.131327 -0.555720 68 67 63 204 0.000000 0.000000 0.000000 1.000000 0.000000 0.000000 0.000000
1.994702 -0.285056 -0.683440 158 121 92 204 0.000000 0.000000 0.000000 1.000000 0.000000 0.000000 0.000000
8.706478 1.055017 -6.515101 40 31 24 204 0.000000 0.000000 0.000000 1.000000 0.000000 0.000000 0.000000
3.391866 -0.450462 -0.643146 143 126 100 204 0.000000 0.000000 0.000000 1.000000 0.000000 0.000000 0.000000
2.404168 0.245493 -0.570970 177 153 119 204 0.000000 0.000000 0.000000 1.000000 0.000000 0.000000 0.000000
0.730082 2.301156 -9.087130 202 199 192 204 0.000000 0.000000 0.000000 1.000000 0.000000 0.000000 0.000000
-1.303260 -2.840464 -1.151159 232 166 144 204 0.000000 0.000000 0.000000 1.000000 0.000000 0.000000 0.000000
-0.216640 -2.737945 -1.929645 188 181 173 204 0.000000 0.000000 0.000000 1.000000 0.000000 0.000000 0.000000
1.611312 -0.261616 -0.664631 80 74 68 204 0.000000 0.000000 0.000000 1.000000 0.000000 0.000000 0.000000
0.529000 0.426881 0.172254 241 226 196 204 0.000000 0.000000 0.000000 1.000000 0.000000 0.000000 0.000000
-0.674921 -0.688548 11.289478 183 183 185 204 0.000000 0.000000 0.000000 1.000000 0.000000 0.000000 0.000000
1.501848 -0.476754 -0.664514 67 62 50 204 0.000000 0.000000 0.000000 1.000000 0.000000 0.000000 0.000000
-0.462842 -2.609368 -2.351421 227 217 207 204 0.000000 0.000000 0.000000 1.000000 0.000000 0.000000 0.000000
1.675754 0.278962 -0.500080 190 163 136 204 0.000000 0.000000 0.000000 1.000000 0.000000 0.000000 0.000000
1.821093 0.566299 -0.327995 161 141 113 204 0.000000 0.000000 0.000000 1.000000 0.000000 0.000000 0.000000
1.859973 0.409085 -0.498267 0 0 0 204 0.000000 0.000000 0.000000 1.000000 0.000000 0.000000 0.000000
2.589932 0.225913 -0.618360 0 0 0 204 0.000000 0.000000 0.000000 1.000000 0.000000 0.000000 0.000000
-0.341017 -2.603535 -2.403134 164 149 126 204 0.000000 0.000000 0.000000 1.000000 0.000000 0.000000 0.000000
1.398689 -0.220633 -0.591929 108 105 90 204 0.000000 0.000000 0.000000 1.000000 0.000000 0.000000 0.000000
1.844847 0.575833 -0.314148 74 67 61 204 0.000000 0.000000 0.000000 1.000000 0.000000 0.000000 0.000000
3.550478 0.870338 -0.211471 215 186 156 204 0.000000 0.000000 0.000000 1.000000 0.000000 0.000000 0.000000
1.906568 -0.109938 -0.619193 191 152 123 204 0.000000 0.000000 0.000000 1.000000 0.000000 0.000000 0.000000
2.014948 0.440095 -0.493227 154 128 103 204 0.000000 0.000000 0.000000 1.000000 0.000000 0.000000 0.000000
0.752942 -1.038557 -0.098484 168 147 126 204 0.000000 0.000000 0.000000 1.000000 0.000000 0.000000 0.000000
8.325557 2.804476 -0.074150 69 65 54 204 0.000000 0.000000 0.000000 1.000000 0.000000 0.000000 0.000000
2.280928 -0.603189 -0.622946 194 171 140 204 0.000000 0.000000 0.000000 1.000000 0.000000 0.000000 0.000000
-0.529157 -2.669164 -2.307238 0 0 0 204 0.000000 0.000000 0.000000 1.000000 0.000000 0.000000 0.000000
1.958422 -0.459329 -0.648198 156 131 101 204 0.000000 0.000000 0.000000 1.000000 0.000000 0.000000 0.000000
1.800084 0.248701 -0.528552 139 116 92 204 0.000000 0.000000 0.000000 1.000000 0.000000 0.000000 0.000000
-1.746995 -2.699466 -2.225518 232 209 215 204 0.000000 0.000000 0.000000 1.000000 0.000000 0.000000 0.000000
1.804056 -0.397216 -0.659890 62 49 41 204 0.000000 0.000000 0.000000 1.000000 0.000000 0.000000 0.000000
2.078612 0.491977 -0.403572 177 153 117 204 0.000000 0.000000 0.000000 1.000000 0.000000 0.000000 0.000000
2.839288 0.127409 -0.711020 227 207 170 204 0.000000 0.000000 0.000000 1.000000 0.000000 0.000000 0.000000
1.246027 -0.369871 -0.577867 111 104 94 204 0.000000 0.000000 0.000000 1.000000 0.000000 0.000000 0.000000
2.191507 0.387714 -0.545255 230 209 180 204 0.000000 0.000000 0.000000 1.000000 0.000000 0.000000 0.000000
1.454170 0.011691 -0.525385 203 188 174 204 0.000000 0.000000 0.000000 1.000000 0.000000 0.000000 0.000000
1.038278 2.210815 -9.066137 230 227 218 204 0.000000 0.000000 0.000000 1.000000 0.000000 0.000000 0.000000
1.803007 -0.501373 -0.682836 183 149 121 204 0.000000 0.000000 0.000000 1.000000 0.000000 0.000000 0.000000
1.564005 0.903791 0.529727 94 84 72 204 0.000000 0.000000 0.000000 1.000000 0.000000 0.000000 0.000000
0.980703 -0.910508 -0.441773 254 247 211 204 0.000000 0.000000 0.000000 1.000000 0.000000 0.000000 0.000000
1.767868 -0.432147 -0.671940 152 126 95 204 0.000000 0.000000 0.000000 1.000000 0.000000 0.000000 0.000000
0.392561 3.169446 -8.879990 191 173 154 204 0.000000 0.000000 0.000000 1.000000 0.000000 0.000000 0.000000
1.694194 0.887054 0.062617 127 107 83 204 0.000000 0.000000 0.000000 1.000000 0.000000 0.000000 0.000000
1.113811 -1.213889 -0.522054 147 120 94 204 0.000000 0.000000 0.000000 1.000000 0.000000 0.000000 0.000000
1.824679 0.439417 -0.457054 182 154 132 204 0.000000 0.000000 0.000000 1.000000 0.000000 0.000000 0.000000
3.014652 0.113349 -0.737344 172 151 122 204 0.000000 0.000000 0.000000 1.000000 0.000000 0.000000 0.000000
1.269988 -1.385484 -0.451241 0 0 0 204 0.000000 0.000000 0.000000 1.000000 0.000000 0.000000 0.000000
1.538528 -0.235773 -0.614629 154 118 82 204 0.000000 0.000000 0.000000 1.000000 0.000000 0.000000 0.000000
0.794878 -1.144016 -0.254492 242 227 196 204 0.000000 0.000000 0.000000 1.000000 0.000000 0.000000 0.000000
2.092316 -0.157816 -0.664451 222 198 170 204 0.000000 0.000000 0.000000 1.000000 0.000000 0.000000 0.000000
1.592905 0.847035 0.028351 161 140 113 204 0.000000 0.000000 0.000000 1.000000 0.000000 0.000000 0.000000
4.337472 -2.895056 -1.624658 164 157 146 204 0.000000 0.000000 0.000000 1.000000 0.000000 0.000000 0.000000
1.897625 0.039082 -0.612192 68 65 53 204 0.000000 0.000000 0.000000 1.000000 0.000000 0.000000 0.000000
1.986762 0.366301 -0.533298 66 59 48 204 0.000000 0.000000 0.000000 1.000000 0.000000 0.000000 0.000000
2.102176 0.528594 -0.370717 71 64 54 204 0.000000 0.000000 0.000000 1.000000 0.000000 0.000000 0.000000
1.753514 0.496270 -0.387550 71 57 54 204 0.000000 0.000000 0.000000 1.000000 0.000000 0.000000 0.000000
3.385311 -0.143875 -0.726636 233 208 177 204 0.000000 0.000000 0.000000 1.000000 0.000000 0.000000 0.000000
1.874408 -0.444576 -0.659745 52 41 34 204 0.000000 0.000000 0.000000 1.000000 0.000000 0.000000 0.000000
0.480642 -0.650582 -0.008538 154 134 110 204 0.000000 0.000000 0.000000 1.000000 0.000000 0.000000 0.000000
3.294954 0.275967 -0.670525 0 0 0 204 0.000000 0.000000 0.000000 1.000000 0.000000 0.000000 0.000000
0.430247 -0.075756 0.274260 157 141 115 204 0.000000 0.000000 0.000000 1.000000 0.000000 0.000000 0.000000
0.338531 -6.692173 10.609937 0 0 0 204 0.000000 0.000000 0.000000 1.000000 0.000000 0.000000 0.000000
1.851678 0.448667 -0.418797 172 159 142 204 0.000000 0.000000 0.000000 1.000000 0.000000 0.000000 0.000000
2.113497 0.096391 -0.616436 211 191 158 204 0.000000 0.000000 0.000000 1.000000 0.000000 0.000000 0.000000
1.568189 1.084781 0.086360 160 140 115 204 0.000000 0.000000 0.000000 1.000000 0.000000 0.000000 0.000000
1.559446 1.114640 0.107376 0 0 0 204 0.000000 0.000000 0.000000 1.000000 0.000000 0.000000 0.000000
2.187965 -0.077154 -0.638157 207 178 146 204 0.000000 0.000000 0.000000 1.000000 0.000000 0.000000 0.000000
0.638606 -0.943523 -0.122988 0 0 0 204 0.000000 0.000000 0.000000 1.000000 0.000000 0.000000 0.000000
8.606597 1.671995 -5.188283 70 58 44 204 0.000000 0.000000 0.000000 1.000000 0.000000 0.000000 0.000000
1.493528 -0.184037 -0.598106 151 111 76 204 0.000000 0.000000 0.000000 1.000000 0.000000 0.000000 0.000000
1.672838 -0.216754 -0.689123 229 216 192 204 0.000000 0.000000 0.000000 1.000000 0.000000 0.000000 0.000000
8.717949 1.029522 -5.256466 47 37 25 204 0.000000 0.000000 0.000000 1.000000 0.000000 0.000000 0.000000
0.465658 0.029506 0.237678 146 128 106 204 0.000000 0.000000 0.000000 1.000000 0.000000 0.000000 0.000000
2.153572 -0.090981 -0.661911 62 52 42 204 0.000000 0.000000 0.000000 1.000000 0.000000 0.000000 0.000000
0.483638 -0.428813 0.153489 147 129 109 204 0.000000 0.000000 0.000000 1.000000 0.000000 0.000000 0.000000
0.656383 -0.981250 -0.205339 250 230 205 204 0.000000 0.000000 0.000000 1.000000 0.000000 0.000000 0.000000
0.850151 -0.977385 0.070662 128 113 92 204 0.000000 0.000000 0.000000 1.000000 0.000000 0.000000 0.000000
1.734825 -1.098627 -0.433209 177 147 119 204 0.000000 0.000000 0.000000 1.000000 0.000000 0.000000 0.000000
4.191736 -2.968303 -1.335292 0 0 0 204 0.000000 0.000000 0.000000 1.000000 0.000000 0.000000 0.000000
-1.028973 -0.760039 11.203304 198 202 211 204 0.000000 0.000000 0.000000 1.000000 0.000000 0.000000 0.000000
8.730619 2.363336 -5.909385 76 66 54 204 0.000000 0.000000 0.000000 1.000000 0.000000 0.000000 0.000000
5.905354 -2.953135 -0.731239 159 153 141 204 0.000000 0.000000 0.000000 1.000000 0.000000 0.000000 0.000000
0.554767 -0.637606 0.054205 192 168 144 204 0.000000 0.000000 0.000000 1.000000 0.000000 0.000000 0.000000
1.984280 -0.580974 -0.660062 194 166 142 204 0.000000 0.000000 0.000000 1.000000 0.000000 0.000000 0.000000
1.877851 -0.558000 -0.660083 92 87 81 204 0.000000 0.000000 0.000000 1.000000 0.000000 0.000000 0.000000
1.503894 1.016535 0.490205 161 150 132 204 0.000000 0.000000 0.000000 1.000000 0.000000 0.000000 0.000000
1.134543 -0.267413 -0.511738 185 147 112 204 0.000000 0.000000 0.000000 1.000000 0.000000 0.000000 0.000000
2.130247 0.325995 -0.547562 70 60 45 204 0.000000 0.000000 0.000000 1.000000 0.000000 0.000000 0.000000
0.858260 2.580219 -8.956942 183 178 166 204 0.000000 0.000000 0.000000 1.000000 0.000000 0.000000 0.000000
1.540063 -1.319417 -0.518031 0 0 0 204 0.000000 0.000000 0.000000 1.000000 0.000000 0.000000 0.000000
3.912975 -2.906073 -1.177455 34 32 20 204 0.000000 0.000000 0.000000 1.000000 0.000000 0.000000 0.000000
1.868168 -0.289241 -0.703274 186 169 151 204 0.000000 0.000000 0.000000 1.000000 0.000000 0.000000 0.000000
2.042626 0.218524 -0.550503 196 170 133 204 0.000000 0.000000 0.000000 1.000000 0.000000 0.000000 0.000000
2.484212 0.066531 -0.688548 201 174 144 204 0.000000 0.000000 0.000000 1.000000 0.000000 0.000000 0.000000
1.111267 -0.115189 -0.460891 167 134 103 204 0.000000 0.000000 0.000000 1.000000 0.000000 0.000000 0.000000
1.237510 -0.634926 -0.629377 102 90 76 204 0.000000 0.000000 0.000000 1.000000 0.000000 0.000000 0.000000
2.696714 0.316921 -0.564348 186 169 143 204 0.000000 0.000000 0.000000 1.000000 0.000000 0.000000 0.000000
0.520165 -0.691482 -0.105448 242 227 195 204 0.000000 0.000000 0.000000 1.000000 0.000000 0.000000 0.000000
-0.711110 -2.817677 -1.690967 228 215 215 204 0.000000 0.000000 0.000000 1.000000 0.000000 0.000000 0.000000
3.612367 -0.124097 -0.765431 214 191 157 204 0.000000 0.000000 0.000000 1.000000 0.000000 0.000000 0.000000
1.819090 -1.021628 -0.426961 176 150 123 204 0.000000 0.000000 0.000000 1.000000 0.000000 0.000000 0.000000
1.439858 -0.223415 -0.604722 179 142 100 204 0.000000 0.000000 0.000000 1.000000 0.000000 0.000000 0.000000
0.554343 -0.491094 0.163965 198 180 159 204 0.000000 0.000000 0.000000 1.000000 0.000000 0.000000 0.000000
8.822264 2.305499 -6.041667 67 57 47 204 0.000000 0.000000 0.000000 1.000000 0.000000 0.000000 0.000000
1.238075 -0.321874 -0.564721 177 140 96 204 0.000000 0.000000 0.000000 1.000000 0.000000 0.000000 0.000000
2.224711 -0.618738 -0.626447 161 139 114 204 0.000000 0.000000 0.000000 1.000000 0.000000 0.000000 0.000000
9.389301 0.104509 -9.867987 153 144 135 204 0.000000 0.000000 0.000000 1.000000 0.000000 0.000000 0.000000
1.780846 0.566342 -0.317641 53 54 45 204 0.000000 0.000000 0.000000 1.000000 0.000000 0.000000 0.000000
1.086722 -2.930898 -1.510642 0 0 0 204 0.000000 0.000000 0.000000 1.000000 0.000000 0.000000 0.000000
0.514239 -0.632671 -0.174194 226 210 176 204 0.000000 0.000000 0.000000 1.000000 0.000000 0.000000 0.000000
8.891573 2.040750 -5.805727 45 35 26 204 0.000000 0.000000 0.000000 1.000000 0.000000 0.000000 0.000000
1.921090 0.502636 -0.351200 56 47 42 204 0.000000 0.000000 0.000000 1.000000 0.000000 0.000000 0.000000
2.145482 -0.341028 -0.711743 198 174 153 204 0.000000 0.000000 0.000000 1.000000 0.000000 0.000000 0.000000
2.812854 0.107359 -0.717735 191 164 134 204 0.000000 0.000000 0.000000 1.000000 0.000000 0.000000 0.000000
0.455769 -0.453381 0.086286 143 126 100 204 0.000000 0.000000 0.000000 1.000000 0.000000 0.000000 0.000000
2.018442 -0.258654 -0.678172 63 47 37 204 0.000000 0.000000 0.000000 1.000000 0.000000 0.000000 0.000000
0.898421 -2.854537 -1.220871 0 0 0 204 0.000000 0.000000 0.000000 1.000000 0.000000 0.000000 0.000000
2.426409 0.100058 -0.668381 187 170 144 204 0.000000 0.000000 0.000000 1.000000 0.000000 0.000000 0.000000
1.692544 0.361406 -0.502257 83 73 63 204 0.000000 0.000000 0.000000 1.000000 0.000000 0.000000 0.000000
0.899640 -1.169932 -0.049525 232 218 192 204 0.000000 0.000000 0.000000 1.000000 0.000000 0.000000 0.000000
1.597993 -0.688609 -0.665343 172 145 115 204 0.000000 0.000000 0.000000 1.000000 0.000000 0.000000 0.000000
0.583359 -0.707639 0.041057 0 0 0 204 0.000000 0.000000 0.000000 1.000000 0.000000 0.000000 0.000000
2.032097 0.567960 -0.256541 157 137 115 204 0.000000 0.000000 0.000000 1.000000 0.000000 0.000000 0.000000
2.061012 -0.187502 -0.663228 63 62 60 204 0.000000 0.000000 0.000000 1.000000 0.000000 0.000000 0.000000
-0.735724 -3.950799 -0.164853 254 252 254 204 0.000000 0.000000 0.000000 1.000000 0.000000 0.000000 0.000000
